102,103,105,106,107,107,107,106,104,102,100,95,89,80,70,65,65,73,87,96,100,101,99,99,96,95,95,96,95,96,96,95,95,96,98,100,100,101,102,102,102,101,99,96,95,94,90,85,77,70,64,58,56,56,53,51,47,47,50,52,56,56,58,61,68,73,74,75,75,70,65,63,66,69,75,82,85,82,82,82,81,78,74,73,70,68,68,74,79,80,79,78,82,88,90,91,92,94,98,102,103,102,102,103,102,101,101,102,100,97,94,92,91,91,90,90,90,89,90,91,89,89,90,88,88,88,87,86,87,89,90,88,85,84,84,84,87,90,92,92,92,91,95,98,99,99,99,98,97,95,91,90,90,88,86,78,73,70,73,75,79,86,94,100,100,99,101,107,108,96,79,68,58,47,39,36,34,36,37,41,42,42,41,39,38,39,41,47,57,67,80,86,85,78,73,73,74,75,73,66,59,54,52,51,53,52,52,53,54,54,53,52,53,53,56,59,63,72,90,97,93,84,82,87,94,101,105,109,109,108,107,110,108,104,99,96,94,92,91,90,90,88,81,75,67,61,58,59,64,72,82,92,102,108,108,104
94,96,98,100,104,106,106,106,104,102,97,93,88,80,73,68,68,75,84,89,93,96,96,96,96,97,98,98,98,97,97,96,96,99,102,104,103,103,105,107,107,108,105,100,98,98,94,88,79,72,65,61,60,58,53,50,47,51,53,57,58,59,61,66,74,79,76,76,74,69,66,63,66,73,82,94,96,93,89,86,87,89,88,85,81,81,84,86,84,78,76,78,86,89,87,86,88,92,96,93,89,88,90,94,98,100,101,101,101,100,97,94,94,94,93,93,92,91,94,96,95,95,94,93,92,90,88,85,84,82,82,84,85,85,85,86,87,91,94,97,98,97,100,103,105,107,108,105,102,98,93,90,90,91,93,92,85,75,72,75,81,90,101,109,109,106,105,105,102,90,76,65,52,42,38,36,36,37,38,39,41,41,39,39,39,42,45,48,57,72,86,91,86,80,75,72,72,70,67,61,57,52,51,53,53,51,51,51,53,53,54,54,53,53,54,56,59,69,91,101,96,88,82,79,80,85,88,93,98,100,103,105,104,100,97,95,94,94,93,92,90,85,77,69,60,54,51,52,57,65,74,84,94,98,97,95
87,89,92,96,99,102,105,105,103,101,97,92,87,82,78,75,77,79,82,85,90,93,95,97,98,99,100,101,100,99,99,99,99,101,105,107,106,105,105,107,109,112,109,106,106,105,98,90,80,74,69,67,65,63,59,56,56,56,58,61,64,64,70,77,80,82,82,81,80,80,80,79,82,89,99,106,103,93,87,86,88,89,89,87,85,86,87,87,81,79,77,79,82,85,82,84,86,89,84,76,69,67,69,76,85,96,98,99,101,100,99,99,97,96,97,96,95,93,95,98,99,100,100,98,97,95,91,88,85,81,79,80,82,82,86,87,89,90,93,97,99,102,102,104,108,111,112,108,104,101,96,92,92,95,100,102,97,79,67,67,73,84,94,105,114,117,113,100,86,73,68,63,51,45,43,42,42,45,47,50,51,50,51,51,51,53,54,56,63,77,92,93,87,84,79,74,69,67,61,57,54,51,53,58,54,48,50,51,53,54,56,54,54,54,53,53,59,79,98,105,102,95,86,79,77,78,78,85,93,101,104,105,106,100,97,95,93,93,93,90,88,82,75,68,60,54,52,53,58,65,72,78,85,88,87,87
82,86,89,93,98,101,104,104,103,102,99,95,91,87,84,81,82,85,87,91,94,97,99,100,102,104,104,104,104,104,103,102,102,103,105,107,109,110,107,105,106,108,110,110,111,108,97,81,70,70,74,74,73,70,70,69,69,67,66,70,70,72,81,92,91,87,88,94,97,99,102,102,102,102,102,102,94,87,84,87,89,88,84,81,81,81,81,80,78,77,77,78,79,80,80,80,82,80,72,64,60,58,61,65,73,87,97,98,100,100,100,100,98,98,98,97,95,94,95,97,100,101,102,100,99,95,93,91,86,85,80,79,80,81,85,89,90,91,91,95,98,100,99,100,105,111,111,107,104,103,100,94,92,96,101,105,99,79,60,56,58,65,76,88,104,117,119,104,78,58,57,59,57,56,53,53,53,56,60,65,67,67,68,69,69,69,68,69,76,90,95,91,82,78,76,72,68,64,58,54,52,51,56,61,57,48,50,51,53,53,53,53,53,52,52,54,70,95,109,107,101,95,90,85,85,80,77,82,94,104,104,105,107,105,98,95,94,95,95,94,91,89,86,80,76,69,66,67,69,69,72,75,79,82,84,82
81,84,88,93,97,100,102,102,102,102,101,100,97,93,89,87,89,92,96,99,102,104,105,106,106,107,108,108,108,107,106,106,106,106,107,109,113,116,113,107,105,105,106,108,111,110,97,76,63,63,76,82,82,84,86,88,86,81,80,81,82,80,81,93,102,100,98,98,101,103,103,104,105,101,97,94,88,81,81,85,87,86,80,78,77,77,76,75,76,76,75,75,75,77,78,79,78,74,67,63,63,63,63,63,65,80,92,94,96,96,97,99,100,99,98,98,97,97,96,96,99,100,101,100,98,96,95,93,89,88,86,82,81,80,82,89,94,96,95,96,98,98,95,96,101,108,112,111,108,107,102,97,93,96,102,107,100,79,58,50,50,58,67,74,84,102,115,109,92,64,51,54,59,63,66,70,73,74,77,81,85,87,91,92,93,92,90,90,95,97,90,79,68,65,66,68,67,64,60,57,54,53,57,66,66,56,52,51,51,48,46,46,50,51,56,69,94,111,116,105,93,87,82,80,80,79,80,90,103,109,109,108,112,111,105,99,99,102,104,105,104,104,104,104,101,96,89,84,79,74,70,73,77,81,85,84
86,87,91,94,98,100,100,101,101,102,104,105,103,100,97,96,97,100,104,107,108,107,107,107,107,106,106,108,108,107,107,108,108,109,109,111,113,118,120,120,113,106,106,107,110,111,102,89,73,73,81,90,92,96,98,100,97,93,90,93,95,90,87,92,97,103,106,109,111,109,108,107,106,104,103,98,89,79,77,78,80,81,79,78,78,79,79,80,78,76,75,75,76,75,75,77,77,75,70,67,68,69,70,68,66,77,89,92,91,86,86,94,100,100,99,98,99,99,97,97,98,100,101,101,98,97,95,92,91,91,90,88,85,82,84,93,103,107,106,106,105,104,102,100,102,108,113,115,112,110,105,98,95,99,106,110,102,80,58,46,45,53,63,65,68,79,101,113,107,84,57,52,56,64,73,80,86,90,95,98,102,103,109,116,119,114,107,102,100,94,82,73,63,59,65,69,73,72,68,64,65,65,66,75,79,77,70,65,58,51,45,45,50,60,74,90,106,118,116,104,91,80,72,68,68,69,80,96,103,102,100,104,115,122,120,115,112,114,115,116,116,116,114,113,110,106,101,97,91,82,78,78,81,89,92,91
94,93,95,97,98,99,100,100,102,103,106,108,109,108,107,106,106,107,108,108,105,103,101,100,98,97,99,100,102,103,103,105,108,107,106,108,110,114,121,125,120,110,108,109,109,108,103,102,95,94,96,99,101,105,105,105,103,100,101,103,106,105,101,99,97,99,107,113,116,117,114,108,107,109,104,95,88,82,76,73,73,73,73,74,77,80,82,86,86,84,81,80,80,79,79,80,80,80,80,79,78,79,79,78,75,78,87,88,81,72,72,81,95,101,99,98,98,99,97,96,97,99,101,102,100,98,95,94,94,94,94,92,90,86,87,94,107,116,117,116,116,115,112,109,111,115,119,119,115,110,104,99,99,106,113,114,104,84,59,46,41,42,47,48,53,64,82,106,114,99,72,59,59,63,69,77,86,94,102,107,113,116,119,124,124,118,109,102,96,91,87,80,67,64,72,80,87,88,85,79,79,82,85,88,93,96,93,86,76,69,64,63,65,73,84,93,100,104,107,103,94,85,75,68,66,68,78,87,79,67,64,76,99,120,125,122,120,122,122,124,126,125,120,116,112,107,106,104,100,94,91,91,95,100,102,98
100,100,101,101,99,99,98,100,103,106,109,112,116,117,116,114,114,113,109,106,101,99,97,95,94,94,96,99,102,104,106,108,109,107,104,102,102,105,113,119,118,113,113,113,112,102,93,87,86,91,96,105,106,107,107,109,108,109,111,110,109,107,107,110,107,107,112,109,108,110,107,103,104,104,96,88,84,78,69,63,60,58,58,60,64,67,74,82,88,87,86,85,85,84,84,84,82,82,84,86,87,87,87,86,81,80,80,78,74,67,65,72,89,99,98,97,97,97,95,93,94,97,101,102,102,100,97,97,96,94,94,95,93,89,88,93,105,113,117,118,120,122,124,126,128,127,127,125,120,113,110,110,115,121,123,118,104,85,63,46,41,37,34,36,43,53,70,93,111,108,91,75,68,66,72,77,84,93,101,109,115,119,120,120,118,112,106,103,102,105,107,100,87,82,90,96,99,99,98,97,97,98,99,99,97,98,98,94,89,85,80,77,77,78,81,81,80,85,93,96,94,88,82,84,85,87,90,86,69,47,41,57,90,116,119,116,119,122,123,125,127,126,123,120,116,111,109,109,106,101,98,99,102,104,105,103
105,106,107,105,101,98,96,100,105,109,113,117,121,121,118,115,115,114,112,107,103,102,101,101,102,103,104,106,108,110,113,116,115,112,108,104,100,101,103,107,111,113,118,120,115,95,76,68,67,74,81,93,102,106,109,111,113,116,118,118,113,108,108,111,109,110,117,115,109,105,102,100,100,98,92,85,78,72,63,60,59,58,58,61,64,65,68,76,84,85,88,90,89,88,87,86,84,84,85,86,87,88,87,87,86,82,81,81,79,73,69,75,89,98,97,96,94,89,86,87,90,94,98,102,103,101,99,99,98,96,97,97,97,94,92,92,97,109,113,115,117,121,127,135,139,138,134,131,129,125,125,128,131,133,128,116,101,84,66,51,43,42,39,41,47,54,65,84,105,112,106,93,84,77,76,81,89,96,103,110,115,118,119,120,120,118,115,113,114,120,124,119,110,104,105,106,102,100,102,103,103,102,100,95,90,88,88,88,89,86,82,81,81,80,78,75,74,78,85,88,87,86,87,91,94,97,102,104,96,80,73,88,113,127,122,114,117,120,119,118,119,119,119,116,112,110,113,114,111,106,103,102,104,105,105,106
111,112,111,109,104,98,96,101,109,115,118,120,123,119,109,107,109,111,112,111,111,112,112,112,114,117,117,111,104,103,111,122,125,122,119,114,110,105,106,107,110,115,120,120,108,82,67,65,67,69,79,88,98,103,108,111,116,118,120,120,119,115,115,114,112,111,114,114,111,105,103,103,103,99,94,85,79,76,72,70,69,68,70,74,77,78,79,80,85,91,95,98,98,98,99,95,92,92,92,92,92,92,91,90,89,87,86,86,84,80,77,80,90,98,99,95,90,82,75,73,76,85,94,102,103,102,100,99,99,98,99,99,99,98,95,93,93,101,109,111,110,113,122,133,138,135,130,129,130,128,128,133,136,133,124,108,92,78,66,56,50,50,50,52,58,64,70,81,99,112,112,105,99,94,93,98,103,108,112,115,116,119,122,125,125,125,124,126,126,127,127,121,113,108,106,102,97,94,94,97,100,101,97,92,86,78,75,76,81,85,86,88,89,89,86,80,78,79,81,82,81,80,84,87,91,97,104,116,121,116,113,120,128,132,128,119,120,122,116,108,103,103,100,100,99,102,106,108,106,103,101,101,104,108,111,112
120,120,118,114,107,101,99,105,112,120,123,123,124,116,105,99,99,104,112,116,117,120,118,118,120,124,120,102,81,75,87,114,130,132,130,128,125,121,119,116,116,116,115,110,92,73,66,72,74,79,89,100,106,106,109,113,116,117,118,119,121,123,123,123,122,120,119,117,116,112,111,110,111,113,109,103,99,96,94,91,89,85,82,84,86,88,89,87,91,101,104,104,101,103,108,110,105,100,101,103,101,99,98,96,94,92,90,89,89,86,85,86,91,98,99,94,85,75,65,63,66,74,85,97,103,102,102,101,100,101,102,103,105,102,98,97,96,99,106,109,106,107,114,121,123,119,116,115,116,115,119,125,130,128,115,94,81,73,66,60,56,57,59,64,67,73,77,84,96,109,110,105,103,100,103,107,113,116,123,126,124,124,128,128,127,126,127,128,127,123,117,110,106,103,101,99,99,96,93,94,99,102,100,93,84,74,68,69,76,85,92,95,93,89,89,87,86,86,87,87,84,84,86,88,92,98,104,113,117,117,117,119,124,130,128,118,117,117,107,97,89,87,89,91,95,99,101,100,99,100,99,100,103,109,115,119
126,128,126,121,113,106,103,106,112,119,123,124,125,121,113,105,101,105,113,120,123,122,120,121,124,126,118,94,72,65,70,97,130,142,139,137,132,128,125,125,122,118,113,101,89,77,77,87,91,95,107,114,110,106,108,114,118,118,118,118,120,123,127,125,124,126,127,127,126,120,116,118,127,133,129,127,123,120,118,115,110,102,96,91,91,94,92,85,89,105,110,110,108,109,113,109,99,95,100,111,111,107,104,103,100,97,94,92,91,89,87,88,93,96,97,93,82,70,59,57,59,66,78,91,98,100,101,100,100,102,106,109,108,104,102,101,101,101,108,111,109,108,109,109,103,97,95,95,96,96,105,124,137,134,112,88,75,69,66,65,61,61,66,73,77,82,86,88,93,101,99,92,87,89,94,98,101,107,120,126,127,126,127,125,120,120,119,116,113,109,103,99,100,102,101,103,100,94,92,101,110,113,107,99,86,74,68,67,75,85,91,84,73,69,75,84,84,85,94,103,105,108,106,106,106,105,106,104,107,110,108,113,119,124,118,107,108,107,96,86,80,77,79,87,91,95,97,97,98,107,114,115,114,116,118,122
131,135,133,128,120,114,109,107,108,111,116,119,122,124,121,113,109,112,115,121,123,121,122,124,127,130,125,100,79,70,76,97,133,144,138,136,131,126,124,124,118,113,109,103,99,94,100,107,108,112,113,110,101,98,105,114,116,116,119,120,118,123,127,126,126,128,133,131,127,122,123,129,137,137,125,118,115,110,108,111,117,115,110,107,109,107,86,64,66,89,108,118,126,126,118,101,85,80,90,112,113,110,110,107,106,102,100,97,94,91,82,79,86,91,93,90,80,69,58,54,56,63,74,87,93,97,98,97,98,103,109,112,104,94,97,102,103,103,109,113,110,108,106,101,91,84,82,84,84,89,101,125,140,140,115,88,73,69,68,66,66,68,74,79,85,90,94,92,91,93,89,81,77,77,82,85,81,88,105,121,122,118,116,111,111,114,115,109,100,91,91,92,95,102,105,106,100,84,85,108,126,126,117,105,92,80,74,76,84,92,88,68,51,46,58,76,81,78,89,103,113,119,119,114,109,106,101,97,104,111,105,103,105,100,96,92,96,97,90,85,81,80,85,87,90,94,102,105,108,115,125,127,125,121,122,127
139,141,138,133,128,124,117,110,105,102,105,109,116,122,123,121,117,116,119,122,124,123,127,128,132,137,138,125,106,98,106,126,144,146,137,132,127,121,119,116,110,106,104,103,103,108,115,119,116,112,105,98,88,85,93,108,101,92,103,117,119,118,124,127,128,131,131,126,120,124,133,136,123,100,85,80,78,74,69,74,85,95,103,115,124,116,75,53,52,75,102,121,131,131,121,98,79,77,90,112,114,114,113,111,111,110,108,106,101,93,79,73,77,84,87,87,79,70,64,60,60,63,73,82,89,94,95,96,99,107,117,111,93,81,85,97,105,107,111,115,115,113,108,98,89,79,76,76,77,86,97,115,133,135,120,96,80,74,72,68,70,74,77,81,87,91,92,90,89,87,84,78,76,77,78,79,73,78,99,112,110,104,102,104,109,116,119,114,95,87,89,91,93,96,105,111,100,80,85,114,137,134,125,114,102,91,85,88,97,107,100,78,57,53,64,85,91,80,78,89,98,105,105,102,99,97,90,80,85,92,88,81,81,81,82,82,84,86,85,86,90,92,94,94,96,102,111,116,115,118,124,125,122,123,128,135
143,143,137,126,116,111,108,107,103,101,102,104,111,118,123,124,119,117,121,122,125,128,132,135,138,141,143,144,143,143,144,145,146,145,139,133,127,121,117,114,109,103,103,103,103,109,116,120,116,108,101,87,72,68,78,91,78,65,81,117,123,118,125,126,122,125,125,122,122,134,137,119,84,61,53,53,51,48,50,52,57,65,81,107,125,120,85,61,64,87,107,128,135,137,131,111,94,91,108,127,124,122,118,115,114,115,113,111,105,98,87,78,78,81,84,82,79,76,72,69,69,72,76,82,87,93,95,98,102,111,120,113,92,80,84,97,108,112,115,121,122,120,111,99,87,78,74,73,74,78,88,101,115,125,121,104,90,81,75,72,72,75,77,81,86,91,91,88,85,84,80,78,79,79,78,73,65,70,89,99,93,88,91,102,112,118,120,112,94,88,91,91,89,88,99,114,107,94,101,130,146,141,132,124,115,106,101,101,110,124,128,116,104,98,103,112,106,88,73,77,85,88,86,86,86,82,70,59,61,66,66,69,73,73,74,77,79,80,85,93,100,103,101,101,107,116,119,119,118,123,127,128,127,129,138,143
144,142,124,95,74,70,77,84,94,102,107,112,114,119,123,123,123,124,125,123,124,131,137,139,141,143,143,143,143,145,145,144,143,143,143,137,132,128,128,124,117,110,106,105,106,110,113,121,121,115,104,89,73,66,78,91,77,61,80,128,129,123,122,119,112,112,119,124,131,141,128,93,61,43,42,39,37,39,45,51,52,53,66,99,121,129,115,96,103,117,128,134,135,140,144,137,128,128,135,141,137,125,108,102,106,115,115,111,105,100,93,88,85,85,84,81,81,84,82,79,78,80,84,85,88,92,96,100,103,112,120,118,103,89,91,101,111,118,121,125,128,125,114,100,87,77,73,70,69,75,87,98,108,116,117,108,99,88,78,73,72,73,76,79,82,87,91,88,82,81,79,77,76,76,74,65,58,63,75,76,67,66,74,94,108,113,113,106,93,88,90,91,90,89,99,110,112,110,121,144,154,145,134,129,125,122,119,117,119,128,142,153,150,143,134,123,106,79,61,64,72,75,68,64,65,60,48,43,52,58,61,64,67,68,73,76,79,82,88,99,106,110,107,106,116,123,125,125,129,135,136,137,137,142,143,143
144,134,101,65,48,47,54,63,77,104,120,130,128,127,128,128,131,130,128,128,130,135,141,143,143,144,143,142,143,141,140,142,143,144,144,142,140,138,138,135,129,124,119,118,118,121,125,128,128,126,116,104,89,81,92,110,109,85,97,134,130,127,122,109,101,107,121,133,143,143,116,82,57,41,36,34,33,38,46,53,53,52,64,96,123,138,144,147,148,144,141,132,127,128,139,146,146,145,147,149,143,124,100,88,91,104,111,108,102,97,90,85,87,88,89,89,91,90,90,89,89,91,90,92,92,94,97,101,105,110,117,122,118,108,105,108,117,125,128,128,128,125,115,101,88,78,73,68,68,76,87,100,112,118,114,110,103,94,81,75,69,70,73,75,77,82,87,87,82,79,76,74,72,70,65,58,54,57,59,52,46,47,56,76,95,102,103,99,96,93,94,98,97,96,99,101,103,107,119,143,155,149,140,135,131,129,128,127,125,127,135,148,148,138,122,106,85,66,54,58,64,64,59,54,52,48,43,43,51,56,58,60,61,67,72,75,78,79,86,97,106,113,113,111,120,126,130,135,139,137,138,139,143,144,143,144
143,125,84,54,41,41,47,57,75,114,140,147,143,139,137,139,141,140,138,138,139,139,143,144,144,144,144,143,143,143,141,141,143,143,144,143,143,142,143,142,138,132,129,132,133,136,138,136,137,135,129,122,114,109,115,129,139,130,125,128,118,118,125,111,98,108,127,140,144,136,109,79,60,43,36,34,37,42,54,59,58,59,73,115,133,146,156,166,165,153,147,140,134,128,126,132,141,149,148,146,136,120,96,85,86,98,103,98,94,88,81,77,80,88,93,96,98,100,99,98,99,99,96,96,95,96,97,100,103,107,114,119,121,120,116,118,120,127,131,129,127,123,117,105,93,82,74,69,69,75,84,99,118,123,115,109,104,94,85,77,70,68,70,72,73,77,81,82,79,77,74,72,68,65,60,57,58,58,50,38,31,30,38,56,76,92,95,99,102,102,103,104,101,100,98,98,103,107,114,129,143,144,142,137,131,129,130,128,125,128,131,131,127,116,105,95,78,66,59,59,64,68,66,59,56,53,50,47,51,53,54,56,57,61,69,73,77,80,85,90,98,109,111,114,124,129,135,136,132,131,135,142,144,144,144,145
143,119,79,54,45,46,54,66,94,128,146,147,142,139,141,143,144,144,143,143,143,142,143,144,146,149,150,148,145,143,143,142,141,143,144,145,144,143,141,137,131,128,128,132,136,141,135,128,132,134,133,128,129,133,137,137,141,141,133,116,97,105,118,101,79,87,109,127,139,130,113,87,65,50,43,41,45,53,65,70,72,73,97,150,159,159,165,178,177,167,168,162,149,138,119,111,114,127,131,139,137,122,108,99,103,111,99,90,87,81,78,73,70,82,87,88,88,94,103,107,104,102,99,98,97,97,98,99,102,106,112,117,118,117,121,122,124,131,134,133,128,124,118,111,101,91,81,76,75,77,82,102,127,130,118,109,104,96,86,78,69,66,67,69,70,74,77,78,76,74,72,69,65,61,58,56,58,59,52,36,24,23,33,48,68,89,96,102,109,110,113,113,111,106,103,104,111,113,112,118,128,133,137,136,131,128,131,129,127,130,132,129,124,115,110,105,92,84,75,70,72,75,73,68,65,61,56,51,51,51,51,51,53,58,66,73,77,82,82,82,91,103,105,111,121,128,133,134,128,127,130,139,145,146,144,146
145,121,81,61,56,63,75,92,117,139,143,133,128,129,136,142,143,143,143,143,143,143,143,136,136,143,150,153,149,145,144,145,146,151,151,149,146,144,140,129,123,122,123,127,132,139,128,110,117,132,129,125,128,136,142,138,137,140,132,107,86,90,95,76,61,67,86,108,129,131,119,102,79,65,60,60,64,70,80,84,85,89,123,175,178,170,168,178,181,177,177,172,164,148,121,105,99,105,116,133,138,136,129,128,128,114,93,89,90,87,84,75,75,84,77,66,61,69,90,106,108,104,100,100,98,99,100,100,103,106,109,111,113,115,118,123,128,134,137,137,131,127,125,123,115,106,96,89,87,88,93,108,131,132,119,110,106,96,87,77,69,64,66,67,68,69,72,74,74,72,68,66,63,59,56,53,56,61,64,50,38,38,45,56,69,86,97,103,113,123,128,124,118,113,110,109,111,112,110,110,114,118,128,132,130,131,132,132,131,132,134,135,131,125,121,117,109,101,88,79,80,81,77,70,68,67,61,54,50,48,47,47,51,57,65,69,75,79,82,84,87,94,99,108,119,126,132,136,134,130,130,135,146,147,147,148
147,129,95,76,75,86,102,124,143,146,135,119,108,113,127,135,139,140,142,142,139,139,128,114,107,123,144,150,145,146,146,150,157,163,162,155,145,141,133,124,117,112,113,117,128,140,132,105,118,133,125,119,123,135,141,139,132,131,121,100,87,88,92,76,61,64,77,99,117,123,126,125,109,92,87,88,89,92,97,102,107,121,152,176,167,162,162,174,176,170,170,163,163,154,129,114,101,100,107,115,126,136,145,140,121,99,87,85,91,91,87,87,92,92,68,50,46,52,72,101,112,110,105,101,101,103,105,104,106,107,106,106,106,111,114,122,128,134,139,141,134,132,129,128,125,120,115,111,105,104,111,123,133,129,117,110,104,96,86,78,72,65,64,66,67,67,67,69,70,69,67,65,61,58,56,52,52,61,66,64,59,59,60,66,76,86,87,88,106,133,141,132,124,117,115,115,115,113,108,106,106,111,117,124,128,132,132,132,132,130,132,135,133,127,124,123,120,109,81,66,73,84,82,73,68,66,61,53,48,47,46,46,48,56,65,70,75,77,80,84,88,91,99,107,118,124,129,134,135,131,128,131,141,146,150,150
149,141,122,106,108,119,134,149,153,142,129,111,98,97,105,115,123,128,131,131,134,134,118,96,86,105,132,144,143,144,142,144,154,159,150,147,140,132,123,117,111,106,109,117,131,141,144,139,140,135,122,116,123,135,143,138,129,124,115,102,93,96,101,87,69,66,75,92,108,115,127,139,139,128,122,117,107,103,115,133,139,140,142,141,139,138,139,153,169,171,164,155,159,154,132,115,107,116,127,115,116,128,142,133,107,91,80,77,78,84,88,93,101,94,73,50,42,50,70,103,119,122,115,107,105,108,110,111,112,109,108,103,103,106,111,118,128,139,144,143,136,129,122,116,117,124,128,130,128,130,135,134,134,127,116,109,102,96,89,82,77,68,63,64,67,69,68,67,69,69,67,66,63,61,60,58,57,59,58,61,65,67,69,75,82,85,75,74,107,142,151,141,130,120,117,117,117,115,110,105,104,105,112,118,124,128,129,128,127,125,125,127,126,122,121,124,128,112,70,50,59,81,87,77,69,65,60,54,50,46,47,46,47,53,63,69,74,77,81,82,86,89,97,108,117,128,135,133,128,122,117,120,129,140,148,150
149,145,142,140,143,145,145,143,138,131,123,111,95,87,82,88,95,103,113,123,129,133,125,107,99,109,129,140,137,135,131,134,143,140,125,128,130,119,110,108,110,114,118,127,137,144,145,144,140,127,114,111,120,134,139,129,124,119,111,103,100,104,107,95,79,69,73,88,107,115,122,128,131,138,137,130,118,109,119,143,137,128,118,111,110,114,120,128,142,155,159,160,163,137,92,78,91,127,147,140,131,131,130,121,103,93,80,72,64,72,89,103,108,99,88,72,59,67,93,117,124,125,120,107,106,109,112,116,118,114,109,103,99,100,106,115,128,143,147,143,132,114,92,81,89,111,130,140,142,144,143,136,129,121,113,104,97,93,91,89,85,77,69,66,68,74,72,69,69,73,72,69,67,67,66,65,65,64,61,66,72,78,82,87,88,86,81,91,121,143,146,138,131,121,114,115,115,116,112,108,106,106,110,115,121,123,123,120,118,116,115,115,114,114,115,118,125,116,82,57,66,88,93,84,75,68,63,57,51,47,47,47,50,53,59,63,72,77,81,85,88,86,92,103,116,129,135,125,111,99,95,104,113,128,140,147
148,146,145,147,148,143,132,124,117,111,109,109,98,85,73,68,69,80,97,114,125,133,137,128,123,128,130,132,128,122,120,123,128,124,113,120,119,106,101,101,113,129,135,141,145,144,143,138,125,107,100,105,115,131,129,118,114,114,108,104,105,107,107,98,89,80,79,94,113,119,126,120,102,98,100,102,108,105,108,115,111,112,110,102,101,104,107,109,110,118,142,162,152,102,63,52,69,116,136,132,133,132,127,120,115,110,91,74,59,58,80,109,120,113,106,100,100,114,130,134,131,128,119,102,95,93,97,107,116,117,113,106,100,98,102,112,127,140,143,135,117,82,57,51,61,89,120,136,145,146,137,121,112,109,106,99,90,87,92,99,97,88,80,75,73,77,78,77,75,79,82,86,81,78,76,76,80,86,90,93,94,96,96,92,89,92,99,113,125,128,123,123,124,119,114,115,117,117,115,113,110,110,112,115,119,119,118,114,109,106,105,103,101,103,106,110,116,119,109,93,95,103,98,90,81,76,69,61,56,51,50,50,52,56,58,63,70,79,86,90,89,86,88,97,112,122,118,95,75,63,60,73,94,116,135,146
146,145,145,146,145,138,126,112,102,97,98,103,105,92,72,61,60,74,92,112,125,130,134,133,130,128,122,117,113,112,115,119,125,125,119,119,113,105,101,106,123,139,143,146,145,142,135,116,99,84,81,95,111,128,121,108,110,109,106,106,109,103,99,93,92,89,92,108,114,116,128,120,78,57,63,76,91,95,101,104,103,104,103,98,96,97,101,98,95,96,112,146,144,99,67,58,79,130,138,133,135,137,133,124,126,126,107,85,64,53,70,104,118,124,122,123,129,139,138,136,132,119,104,89,78,73,75,82,96,111,116,112,105,103,105,113,126,135,133,123,102,66,45,38,51,79,109,128,133,128,118,108,103,101,99,91,79,74,79,92,99,100,97,91,82,81,85,88,88,89,95,103,106,102,98,97,101,108,111,107,104,101,100,97,96,100,105,111,110,105,104,108,113,113,113,116,119,119,118,116,115,114,114,115,118,117,115,110,105,100,96,92,88,89,95,98,103,111,118,117,115,112,104,97,89,81,76,69,63,57,53,54,56,58,61,67,74,78,81,84,81,76,80,90,110,121,100,68,56,48,42,47,66,101,128,143
142,144,145,144,144,142,133,120,104,96,93,96,105,99,79,65,64,78,98,115,121,116,112,114,116,113,108,107,106,107,108,117,127,129,124,115,112,110,111,113,128,141,146,145,143,136,119,99,85,73,75,89,110,124,115,107,109,104,100,107,107,102,101,101,100,96,102,109,108,113,130,126,75,52,59,74,84,87,96,104,104,105,103,103,100,99,99,95,87,85,93,120,140,121,96,89,115,148,143,128,129,134,134,123,120,126,118,99,78,68,79,100,109,120,129,133,131,127,123,120,115,100,84,72,63,59,59,65,76,96,112,115,112,109,109,113,120,126,127,119,101,72,51,46,57,84,108,119,120,116,112,110,107,105,102,92,75,63,66,77,89,100,108,106,95,89,91,98,101,100,98,104,113,118,115,110,109,114,112,109,106,106,106,104,102,99,97,95,95,97,99,103,107,109,112,114,115,117,118,118,117,116,116,118,118,117,112,108,101,93,86,79,73,74,82,90,92,97,105,111,112,114,111,106,98,92,85,79,72,64,60,59,59,60,63,75,80,79,77,78,80,82,84,90,112,123,95,61,51,47,42,39,48,77,113,135
135,143,144,143,144,144,143,136,124,110,96,93,99,96,82,68,70,85,105,116,111,100,110,114,114,111,111,111,112,102,91,101,124,131,119,109,112,120,122,115,124,142,144,144,141,124,105,93,85,76,75,87,108,113,106,106,105,94,95,103,102,102,106,110,110,110,110,107,109,117,133,129,86,61,67,74,84,91,99,104,104,108,108,111,111,107,107,101,87,79,80,90,107,119,124,128,139,143,130,120,129,138,138,122,108,106,110,111,101,95,100,101,96,104,123,131,128,119,115,111,101,86,73,59,51,50,52,53,63,81,108,121,120,116,114,116,118,122,125,122,111,90,76,70,82,100,108,115,118,116,117,120,120,115,111,102,85,70,65,69,78,92,106,109,103,93,90,100,108,100,81,76,90,111,118,115,114,113,114,114,112,112,107,102,97,91,88,91,94,97,100,102,105,109,112,112,114,116,118,118,118,118,118,118,118,115,112,107,99,89,79,73,70,74,77,79,82,87,93,101,108,114,115,114,109,103,95,88,80,74,69,66,65,65,66,75,81,82,82,85,91,96,97,97,115,124,98,61,52,47,41,39,42,57,93,127
138,142,144,141,143,142,142,139,133,124,107,92,89,88,80,73,76,92,104,105,106,108,117,120,122,117,115,117,116,97,72,84,116,131,114,101,111,125,127,114,115,136,142,141,135,107,100,104,93,82,81,89,102,105,101,101,96,89,93,99,100,100,106,111,113,115,110,109,114,128,136,128,90,64,70,77,86,97,110,118,120,121,117,117,118,114,110,105,95,82,79,76,77,85,99,111,118,124,130,139,141,142,137,120,101,89,95,113,122,126,124,111,99,101,109,115,117,115,111,107,93,77,61,46,38,39,43,47,54,72,102,125,128,124,121,123,125,126,126,126,120,110,104,102,106,107,110,118,122,123,126,127,125,123,123,118,106,91,81,77,78,85,95,102,103,97,93,99,109,98,76,61,75,101,120,121,120,119,118,116,112,105,97,92,88,88,90,93,95,97,100,101,102,106,112,114,115,118,119,119,119,119,119,118,118,116,113,107,97,87,78,82,94,92,82,76,75,79,85,93,102,113,118,119,118,112,105,99,92,85,79,74,70,68,66,68,74,80,88,93,91,92,95,99,111,122,110,73,53,45,42,42,45,54,85,125
143,143,142,138,142,142,134,132,131,128,114,92,82,80,77,74,81,93,93,94,107,115,125,129,128,121,118,117,117,98,77,86,117,128,114,98,103,113,113,108,108,122,130,132,128,102,105,117,105,93,88,92,99,102,100,95,92,92,95,101,105,110,112,114,112,113,112,113,122,133,133,126,97,66,69,77,86,98,115,125,129,132,127,122,121,120,120,120,116,106,100,93,82,78,79,81,84,98,117,135,142,141,139,125,103,89,88,104,125,137,134,123,113,107,110,110,110,113,113,105,87,67,50,37,31,34,39,47,54,68,96,126,134,133,130,130,131,130,128,128,126,121,117,115,113,110,115,121,124,123,120,115,115,121,125,125,120,112,102,97,95,95,99,101,106,106,104,110,114,111,94,81,88,108,121,121,118,113,108,106,100,96,92,90,88,91,92,93,95,97,92,87,89,95,104,116,119,118,119,119,120,120,119,118,118,115,112,105,96,86,80,98,120,112,86,73,68,70,76,84,92,108,118,122,122,118,114,109,101,96,88,79,75,72,69,69,72,77,86,91,91,90,89,92,98,112,116,98,69,56,51,51,50,57,91,131
149,145,143,143,143,140,132,126,124,124,118,93,76,74,78,82,87,89,78,78,104,115,124,128,122,118,118,117,119,114,105,111,127,126,114,104,100,101,101,101,105,108,110,119,123,108,107,117,105,102,100,102,106,108,103,98,96,100,101,110,115,119,118,118,116,115,118,121,130,135,128,124,99,67,69,77,85,98,116,126,130,132,130,125,124,126,128,131,134,131,126,113,95,84,79,77,74,80,95,110,127,146,148,130,114,99,93,96,110,122,129,128,117,111,110,110,112,118,118,107,85,61,46,38,34,38,45,53,60,73,101,129,138,139,136,135,135,136,135,131,128,125,123,119,118,122,129,127,120,111,103,100,106,119,128,128,124,121,119,120,119,117,114,113,113,113,115,119,121,120,116,108,106,112,115,109,103,100,99,98,97,96,93,89,87,88,88,88,91,92,84,77,78,85,95,111,114,115,118,120,121,120,120,120,120,115,111,103,95,85,78,93,112,103,79,70,68,70,72,75,84,104,115,117,122,122,119,116,110,101,94,87,82,82,82,82,78,76,80,85,92,91,87,86,91,102,112,114,105,89,81,80,79,87,117,144
148,142,140,142,143,142,133,121,119,120,112,95,75,75,85,90,93,93,82,80,101,110,115,119,117,116,118,119,126,128,128,128,127,122,114,105,97,97,98,97,99,96,95,106,116,113,107,104,105,110,114,116,116,109,104,99,101,110,113,117,121,122,119,118,116,118,124,128,133,128,118,123,97,64,66,75,88,102,118,126,129,129,128,123,123,126,128,134,137,137,135,127,111,102,96,89,85,77,75,84,104,139,150,139,128,116,107,104,109,115,123,126,122,113,111,111,114,122,126,115,88,64,50,43,41,42,50,59,70,90,114,135,140,141,140,139,139,139,138,134,129,128,128,128,129,139,143,135,126,111,100,101,108,118,127,129,128,128,128,128,127,128,129,126,123,120,120,122,123,124,122,118,113,111,107,103,98,95,93,93,90,89,88,85,81,81,81,82,85,88,85,74,75,80,89,102,108,111,120,123,123,120,126,128,128,124,117,108,97,87,75,76,81,78,82,98,93,77,73,74,87,104,111,112,119,122,123,121,115,105,99,94,92,92,93,94,92,86,82,82,84,87,86,89,96,99,102,112,120,122,122,124,130,134,144,148
140,139,134,139,142,140,138,123,110,108,99,86,74,74,82,79,80,93,98,95,97,102,111,116,113,101,93,97,114,128,131,128,124,120,114,108,102,99,97,96,96,92,86,89,102,104,96,94,102,113,121,119,113,106,102,103,108,118,125,126,128,125,121,119,118,122,130,138,132,125,119,119,87,59,65,79,95,107,115,121,126,128,127,120,120,121,125,130,131,134,137,135,125,118,110,100,92,82,68,63,74,108,137,141,135,128,119,110,113,117,122,125,122,118,115,115,117,128,131,124,103,78,60,48,41,39,50,68,89,113,131,140,141,143,143,143,140,141,141,139,136,129,125,120,124,140,150,154,145,130,120,120,121,123,127,132,135,137,136,134,135,138,139,136,131,128,125,125,126,127,125,124,120,116,112,107,100,93,89,84,77,76,77,76,76,75,76,81,82,85,90,84,79,79,93,104,108,114,121,125,125,125,130,131,128,124,122,113,100,87,72,68,64,70,104,139,129,93,79,85,98,108,107,108,113,118,122,122,116,107,100,97,91,87,86,90,99,106,108,103,99,99,97,96,95,90,87,96,111,123,130,135,140,143,143,143
123,132,135,137,140,142,142,127,108,99,93,80,69,68,64,50,48,65,91,91,84,97,110,112,89,70,65,75,92,115,127,127,122,117,116,112,105,97,94,93,94,91,85,81,91,92,87,92,97,106,111,106,99,94,96,102,109,124,133,134,132,125,123,123,122,129,142,143,133,128,121,109,73,56,66,82,98,107,115,119,122,123,125,120,119,121,123,125,126,129,135,135,128,121,120,110,97,90,75,60,56,78,119,138,137,135,121,116,116,120,122,124,120,119,120,123,125,131,136,135,123,103,82,64,50,48,63,87,109,126,136,140,141,143,144,143,143,144,146,142,124,98,81,75,85,113,151,173,172,155,137,133,135,133,130,134,140,142,140,141,143,143,143,139,130,127,129,129,128,130,130,128,125,123,120,112,98,88,91,81,65,60,69,75,75,74,77,79,79,81,90,93,93,96,103,107,112,117,121,123,124,124,126,122,114,110,108,107,95,80,69,66,59,63,97,135,126,93,87,100,110,109,102,102,108,115,120,119,109,103,101,101,91,80,76,78,92,107,118,122,117,110,105,99,89,79,74,78,94,108,119,124,132,135,129,120
116,125,130,134,139,142,142,131,109,96,89,77,69,63,48,36,33,45,78,92,87,102,109,93,68,57,65,77,91,110,124,125,121,113,115,116,109,97,92,91,94,93,84,80,82,85,88,94,96,93,92,89,86,87,93,103,113,124,133,133,124,118,121,128,132,138,143,141,134,128,114,93,61,56,70,89,103,108,113,118,118,122,124,121,124,127,124,117,113,116,129,135,131,123,122,122,114,102,84,64,56,68,104,123,126,131,121,119,120,120,121,120,119,120,125,128,130,133,136,140,135,128,113,94,81,79,88,100,104,109,124,134,139,141,143,143,145,143,143,136,102,69,56,52,58,86,145,175,170,144,126,124,132,138,138,138,143,143,143,145,146,146,144,127,103,104,128,145,143,138,135,132,130,128,126,117,95,86,94,89,70,66,77,84,81,80,80,76,68,68,78,92,104,107,108,111,113,114,117,120,122,121,118,112,103,98,96,100,94,77,68,65,58,56,67,87,86,82,94,108,113,104,96,95,102,108,112,112,103,101,107,104,91,78,73,72,77,92,107,118,116,110,105,99,88,80,73,67,76,93,101,108,118,120,111,105
113,116,124,131,138,141,142,135,113,98,87,74,66,58,45,37,38,50,82,103,104,110,103,78,64,64,77,85,97,118,129,125,116,110,112,116,113,102,96,92,94,95,89,84,85,88,95,103,99,88,82,82,85,88,100,113,123,128,131,123,110,111,119,137,146,144,143,143,140,128,117,92,66,64,80,97,108,113,115,116,117,119,122,126,129,134,123,101,89,93,111,128,130,124,123,138,146,123,90,70,63,75,96,99,106,112,112,118,120,123,123,118,116,117,119,122,128,136,138,140,136,135,133,129,124,112,100,86,77,82,104,129,137,142,147,143,142,139,142,135,102,67,50,41,45,73,132,160,153,126,105,101,113,125,135,143,147,150,146,143,142,143,138,106,75,78,112,149,162,157,154,151,149,144,140,133,116,107,113,111,100,95,97,95,90,82,80,73,64,63,70,88,103,108,109,106,106,105,106,114,120,117,111,103,101,109,114,110,94,76,67,64,58,56,56,60,65,74,86,97,101,94,92,93,99,105,109,105,98,99,107,101,92,82,77,74,75,88,101,111,114,110,107,100,92,87,82,74,65,66,74,82,95,106,106,105
110,111,119,129,135,137,137,132,114,96,84,69,57,56,54,48,53,72,99,110,113,112,102,81,69,69,81,94,113,132,137,122,110,108,114,116,115,108,101,98,97,97,99,99,99,102,108,110,108,98,88,88,92,100,116,129,133,131,124,105,97,106,123,143,144,142,143,143,139,116,100,89,68,72,89,104,115,116,115,115,111,112,117,126,134,135,121,94,79,86,108,126,128,122,123,141,157,149,117,86,85,102,101,87,89,102,105,111,119,126,127,116,111,109,109,110,119,128,139,140,137,139,140,141,139,128,101,78,67,74,95,121,138,148,150,139,137,135,138,137,115,86,63,54,63,86,118,127,124,115,104,100,105,114,124,135,144,151,150,136,126,132,131,102,75,78,105,135,162,170,175,169,163,162,157,153,148,143,141,138,135,124,111,103,94,81,75,74,70,68,73,82,94,104,107,98,92,92,99,107,115,114,111,101,106,122,127,112,89,75,69,65,58,58,60,61,67,72,74,80,87,92,95,98,101,104,107,105,98,95,94,91,89,86,82,81,87,95,101,106,112,109,109,108,102,97,92,87,77,69,76,84,87,103,111,112
111,111,116,127,133,130,126,124,113,94,76,57,43,51,63,68,79,95,107,110,112,111,108,99,89,82,90,105,126,136,130,118,109,113,116,118,119,115,108,102,101,102,104,111,114,115,123,128,128,116,109,105,106,114,131,136,132,128,118,99,89,100,125,131,122,128,141,143,134,84,67,74,69,74,92,107,119,119,119,119,111,110,111,123,137,135,121,100,89,94,108,123,122,117,117,130,153,156,142,104,97,109,104,85,79,84,88,103,120,127,126,115,105,101,101,107,117,127,139,140,141,142,142,141,143,139,115,93,81,84,100,121,136,146,143,138,135,133,133,137,134,116,101,97,103,109,106,98,98,105,111,113,113,118,122,126,130,134,132,127,122,128,132,121,108,107,115,125,144,168,172,162,156,153,152,151,152,151,147,145,145,136,119,111,101,86,76,80,82,75,75,85,94,102,102,88,81,82,92,105,116,119,109,98,109,122,117,101,87,75,72,67,64,70,75,73,72,72,72,77,89,99,103,104,102,99,96,100,101,96,92,92,93,94,92,88,91,95,93,105,119,117,116,117,113,108,100,95,88,85,90,92,92,94,103,111
107,111,116,125,128,126,117,113,108,95,74,45,33,41,56,68,79,87,97,105,109,110,112,114,114,112,117,124,124,110,97,100,110,114,115,119,120,121,118,112,109,109,114,123,127,131,140,140,128,119,118,120,127,135,142,139,127,123,117,102,96,106,125,119,108,117,135,141,136,90,75,82,69,69,88,103,119,122,124,119,110,108,113,122,133,134,118,100,89,92,105,116,117,116,119,136,149,150,142,116,99,104,109,95,80,73,79,103,121,127,125,114,104,100,102,109,119,131,140,137,139,141,142,143,143,143,136,122,111,109,119,131,138,143,141,133,127,125,128,131,139,138,135,133,129,123,105,92,88,94,106,118,125,128,125,119,118,119,114,115,122,128,124,122,121,121,121,119,126,143,148,140,133,130,128,128,133,134,132,133,139,134,124,114,106,98,93,96,91,78,77,90,100,101,93,80,76,80,89,102,116,116,94,89,105,112,97,90,85,76,70,72,81,90,88,86,85,77,76,90,123,128,112,105,98,89,82,90,94,95,97,95,98,103,104,99,96,92,95,115,141,143,135,131,123,118,109,100,91,87,88,89,89,88,91,102
105,112,121,128,128,119,108,104,101,94,75,43,34,33,41,51,59,67,85,100,107,108,107,114,123,128,131,127,105,72,63,76,102,113,112,116,121,125,125,123,122,122,126,131,139,142,132,111,96,95,102,112,130,146,153,144,128,120,114,110,109,119,128,122,115,123,134,142,144,128,122,112,75,69,86,103,112,118,119,112,104,104,118,128,132,122,103,90,80,86,106,123,128,125,121,128,135,144,143,128,109,111,120,107,86,75,82,107,113,108,106,111,107,103,106,117,128,134,139,138,138,138,139,139,143,144,142,138,130,131,136,140,143,140,138,128,115,112,110,114,122,129,135,131,125,123,113,102,95,94,104,120,131,134,130,120,112,110,107,106,111,112,107,103,104,108,107,101,100,105,113,115,110,105,101,105,112,115,113,113,118,121,119,110,108,108,109,112,97,80,81,102,109,97,81,74,77,80,82,92,98,89,73,75,92,94,82,78,77,74,75,86,89,68,51,60,86,92,81,105,138,135,107,97,90,80,73,70,75,79,89,94,96,107,112,113,109,104,106,124,142,149,147,150,143,134,121,111,103,94,89,88,88,88,94,100
109,116,124,130,130,121,105,98,100,98,81,56,41,37,38,43,50,61,79,98,104,99,96,102,110,116,120,113,82,50,43,60,94,110,113,118,124,126,121,127,130,129,131,139,145,127,91,69,60,63,66,77,106,140,158,148,127,116,112,109,114,126,136,135,129,131,135,143,145,141,142,123,82,73,87,100,101,105,111,102,96,99,119,137,149,137,111,96,88,95,113,123,119,111,103,108,123,137,133,129,116,113,126,106,86,80,87,97,89,66,64,88,106,103,104,115,128,134,136,137,137,132,131,136,139,139,135,134,134,137,139,142,143,140,133,128,116,105,100,100,101,105,111,115,116,117,120,116,107,104,113,126,137,141,136,126,116,110,106,104,105,105,109,104,103,108,106,96,89,89,95,101,100,95,91,96,104,108,107,108,109,114,115,111,111,113,112,106,92,81,94,121,120,93,73,72,77,77,74,78,72,56,51,61,77,82,76,69,64,67,78,92,75,33,17,29,65,98,89,89,110,102,91,82,78,77,72,64,61,65,75,87,91,99,108,114,116,112,112,125,135,143,156,168,165,151,131,119,113,102,95,93,94,97,103,105
118,124,128,132,131,123,105,100,102,104,92,75,59,52,47,46,53,70,87,100,98,91,86,91,97,97,102,105,79,48,45,65,100,113,115,121,129,128,121,123,129,131,136,144,135,94,64,51,45,45,46,56,77,116,149,148,125,112,109,109,115,127,134,133,128,130,128,130,134,132,133,128,94,76,88,97,95,95,96,88,87,97,123,147,157,154,142,135,119,104,100,99,94,103,111,110,126,134,120,111,103,114,122,104,95,95,93,86,60,37,34,60,100,102,103,113,123,130,133,134,135,129,128,129,126,124,126,128,132,139,142,143,143,142,134,128,125,113,103,102,101,99,98,106,114,114,114,117,116,114,121,132,138,140,139,132,123,116,111,108,110,109,116,116,118,128,123,97,78,77,84,94,101,97,90,93,100,107,113,116,120,122,124,122,124,120,98,90,91,89,118,144,129,92,73,74,77,72,68,69,60,48,46,53,65,76,74,66,66,69,86,95,64,26,18,24,63,101,94,77,72,72,67,61,69,81,80,68,61,59,63,74,80,89,97,101,110,111,119,132,138,140,146,159,160,142,120,115,115,102,93,94,99,105,109,113
121,128,131,136,137,125,108,100,103,104,102,95,88,75,65,60,68,87,101,100,94,90,87,92,94,89,92,100,95,78,73,91,114,115,115,119,128,127,117,116,125,133,139,143,124,78,50,41,36,36,39,48,67,93,132,141,121,106,106,111,119,128,131,118,107,111,108,111,122,125,124,129,106,79,84,92,88,85,76,74,80,104,139,156,151,139,131,138,127,95,85,86,95,117,119,117,132,130,110,96,86,98,116,118,119,113,103,84,52,33,27,46,88,103,101,108,119,129,132,131,130,128,123,119,117,116,118,123,130,137,143,143,143,143,138,128,124,116,104,105,108,104,104,113,122,117,114,117,119,118,126,136,139,143,141,136,128,123,121,117,119,119,121,118,127,142,140,103,67,64,77,100,108,95,82,82,92,104,121,128,131,132,135,135,135,125,100,96,115,126,143,151,125,93,80,81,78,73,68,67,64,56,54,57,64,72,74,69,74,78,92,97,72,38,31,47,86,114,96,70,58,53,51,54,65,84,95,95,79,63,58,65,73,80,86,94,108,121,130,138,141,135,133,140,125,98,82,93,107,94,80,86,99,108,112,116
122,128,131,137,140,128,113,96,93,99,104,109,107,101,93,88,92,100,104,98,92,90,94,98,99,96,96,104,109,110,109,119,125,115,109,112,122,120,109,110,123,133,141,143,118,69,38,36,33,37,45,56,65,86,123,134,117,100,98,108,123,131,132,111,98,100,100,105,115,120,127,134,119,89,86,86,78,74,65,70,79,100,123,132,147,136,113,105,107,103,98,98,112,129,119,121,127,123,108,92,79,86,117,137,137,128,115,89,54,37,30,42,79,101,99,102,112,123,129,128,124,121,116,110,109,111,117,127,132,139,143,143,143,143,139,133,127,120,112,120,121,116,113,112,117,123,126,131,129,128,132,135,136,150,147,131,125,126,126,128,128,126,123,115,117,125,115,85,60,66,96,119,112,90,75,74,82,94,111,128,132,134,138,139,138,133,121,130,155,162,158,136,107,90,84,81,76,77,75,72,66,65,63,61,65,75,75,75,76,76,88,98,89,69,60,82,107,114,94,73,59,53,51,54,61,74,95,114,108,76,61,60,67,73,84,97,117,137,148,149,146,138,135,134,113,75,59,75,99,91,76,84,102,113,121,123
129,132,134,142,141,133,117,93,81,87,91,98,108,111,103,98,98,100,98,95,95,98,104,106,107,108,107,110,115,122,125,128,122,110,103,106,116,116,102,106,124,130,140,143,118,68,37,36,39,45,58,61,64,84,118,132,115,100,96,103,121,130,133,121,113,113,111,116,118,122,136,140,129,108,93,85,73,66,64,70,87,105,129,132,140,140,116,97,97,106,113,107,100,107,111,113,116,119,108,93,87,98,115,127,130,132,126,101,65,45,37,48,86,106,99,98,100,111,123,125,121,117,114,109,108,113,127,135,138,139,139,140,141,140,137,131,128,123,127,122,100,87,94,103,118,126,131,139,144,143,135,143,147,157,153,131,119,121,126,133,139,139,128,118,99,79,67,57,60,82,111,124,109,84,73,68,75,80,87,107,131,138,140,137,136,141,144,154,166,162,147,119,100,93,85,79,77,78,82,78,77,78,75,67,72,95,103,89,82,77,78,89,98,98,98,102,106,101,91,84,70,65,61,63,64,65,82,116,116,91,70,65,67,76,89,108,140,162,158,138,114,102,101,109,112,97,76,86,106,99,86,94,109,116,120,124
136,139,138,141,143,136,120,98,79,76,78,84,97,107,101,88,84,88,94,97,101,107,115,117,117,120,120,119,118,119,121,123,120,109,102,104,115,118,105,104,119,128,136,140,122,77,47,39,42,47,56,60,66,86,116,128,114,102,98,105,121,128,131,131,130,128,124,128,134,136,142,138,131,127,108,93,81,76,73,74,81,102,136,147,143,143,126,108,99,88,79,69,63,72,87,95,102,102,97,94,99,106,105,106,116,128,132,110,79,60,56,74,109,112,102,96,91,99,110,118,123,118,119,115,112,119,134,142,137,132,134,137,137,131,128,125,127,128,126,98,63,45,51,82,112,110,119,144,158,148,139,145,156,165,162,144,129,132,132,135,148,146,135,122,94,67,56,58,75,93,105,111,97,79,70,66,74,74,66,70,101,120,121,125,132,133,138,154,162,149,129,110,98,96,91,84,77,77,87,97,95,89,82,74,79,117,125,110,95,84,79,81,92,103,109,109,103,98,95,95,93,92,90,92,91,86,93,115,113,97,84,77,80,96,114,137,162,167,126,86,61,54,52,58,82,113,122,119,116,101,96,106,117,122,122,130
140,142,139,139,140,135,124,108,92,84,84,86,99,107,101,88,80,81,94,103,113,119,126,128,128,128,127,125,124,123,124,125,123,118,111,115,125,127,113,107,111,116,128,136,131,94,59,42,39,45,54,63,70,93,117,123,111,100,99,114,127,130,132,135,138,137,128,129,139,137,133,132,131,134,131,120,106,99,94,90,86,91,117,140,143,145,136,117,99,73,51,37,37,50,67,79,87,80,78,84,95,100,94,95,104,115,123,112,98,87,89,102,117,114,105,92,81,84,95,111,118,118,117,117,117,122,136,144,136,130,132,142,136,129,123,117,118,135,121,76,46,34,38,78,107,112,121,145,163,159,142,132,133,153,161,155,147,149,149,147,146,142,135,121,94,73,69,74,84,92,93,93,86,77,72,74,82,75,57,47,56,70,82,95,109,111,109,138,148,128,115,103,93,96,96,88,78,78,104,118,97,78,85,81,72,97,114,103,94,86,81,85,90,101,105,105,104,105,106,110,114,115,116,118,121,112,109,115,100,93,101,105,110,122,140,164,164,124,74,53,47,50,45,39,47,76,114,122,114,101,96,104,120,131,138,138
147,140,136,134,135,138,134,124,112,103,104,107,113,114,109,101,92,94,103,114,123,131,135,135,134,133,132,130,128,128,126,123,121,127,126,129,133,131,124,111,101,99,109,126,134,122,86,54,41,42,51,61,76,103,119,115,108,104,108,125,134,140,143,142,140,132,129,128,128,126,126,135,133,132,133,137,135,131,124,116,109,106,117,132,140,140,127,110,104,78,43,31,34,45,64,80,84,76,69,69,79,86,84,81,82,90,99,106,114,113,109,106,106,107,100,87,74,73,81,101,115,120,122,121,120,123,138,143,135,127,141,153,143,132,116,103,112,143,128,88,61,52,66,101,126,131,132,144,151,154,147,119,110,129,147,150,149,153,149,146,139,136,130,115,90,76,80,88,97,97,92,88,81,75,78,88,91,80,58,42,42,48,56,68,81,92,101,120,117,109,104,97,92,94,96,90,78,85,121,123,78,65,94,96,76,79,87,89,85,82,86,96,108,115,112,111,113,115,116,119,119,116,116,121,124,116,99,88,86,99,129,143,149,153,162,170,136,88,57,46,51,56,54,48,41,43,68,96,102,97,93,98,116,138,147,151
148,140,132,128,130,138,141,136,129,123,122,122,124,124,120,116,112,114,120,126,131,135,138,138,139,138,137,133,131,131,129,123,120,128,133,135,135,129,118,112,99,90,90,106,124,130,120,91,64,53,58,68,87,111,117,108,103,103,110,122,127,138,145,141,131,125,129,127,121,122,130,141,141,136,132,129,130,128,121,121,118,116,125,134,139,132,111,93,99,93,64,47,52,59,76,91,90,80,68,65,70,76,76,73,69,70,79,91,106,113,103,94,93,97,94,80,69,68,74,90,112,122,124,125,125,129,141,143,138,125,122,122,122,131,119,99,106,131,130,119,109,104,103,105,119,129,135,141,144,146,144,134,124,128,143,151,152,146,144,147,139,132,128,112,85,76,88,104,115,112,103,93,80,78,90,100,95,78,61,48,47,50,53,61,73,85,95,100,97,92,89,89,89,93,95,92,80,86,115,110,72,74,111,109,90,85,89,85,80,85,101,118,127,127,121,120,122,122,120,120,114,112,115,117,117,113,97,78,81,108,144,161,162,162,167,162,113,73,53,48,54,59,61,58,47,39,47,76,92,92,90,92,110,135,149,152
147,143,133,128,132,139,141,142,139,132,129,128,128,129,129,126,127,130,133,136,136,134,136,137,139,140,140,135,133,133,129,126,125,132,138,139,135,123,105,99,101,93,86,90,104,119,126,123,110,97,96,100,106,111,107,102,98,98,105,115,121,130,140,134,123,116,111,105,106,116,131,143,143,142,139,132,127,124,121,123,126,125,133,136,136,119,89,72,78,93,93,87,87,90,92,98,100,95,81,74,77,80,78,74,67,66,72,80,96,102,96,87,85,87,88,81,70,68,76,86,106,122,125,128,130,130,137,143,140,128,114,105,102,116,119,99,97,113,126,129,136,125,114,106,112,124,136,149,153,157,160,164,152,143,146,157,156,146,143,142,140,137,129,109,85,78,98,119,127,118,103,91,78,81,101,109,91,72,64,59,57,56,58,66,76,80,79,81,82,76,78,81,86,90,96,92,80,77,95,98,86,98,119,107,96,91,90,87,89,99,112,123,125,118,112,116,118,117,118,120,121,122,128,122,120,116,105,84,81,110,143,153,145,142,159,150,97,64,52,50,53,56,54,57,52,43,42,66,90,89,92,95,108,130,143,149
144,149,147,143,142,141,134,136,138,136,136,133,131,131,133,135,137,140,141,142,142,136,135,136,137,139,138,135,135,135,132,131,133,137,140,136,127,101,77,70,86,99,93,89,93,101,107,113,118,117,117,118,116,113,107,100,101,101,103,110,119,131,137,131,120,113,102,89,93,109,130,143,142,143,142,140,136,135,135,132,132,131,128,126,124,109,77,58,57,69,84,96,101,105,103,105,111,112,107,97,93,94,91,85,77,73,74,82,91,95,94,88,84,82,85,85,81,79,84,90,103,122,129,133,132,130,132,141,140,136,122,108,97,97,100,101,102,114,128,139,143,138,136,128,130,138,145,157,169,175,174,176,166,152,153,162,158,151,143,139,143,144,132,115,92,87,103,121,121,109,93,87,85,95,116,109,82,66,63,66,64,60,63,67,74,77,75,72,68,66,67,73,80,93,111,101,80,72,80,89,92,102,113,109,102,94,93,96,101,110,117,120,117,103,98,104,115,110,113,118,129,140,143,134,129,124,106,88,88,114,141,147,138,129,149,145,89,59,50,45,47,47,47,50,51,48,45,64,92,93,93,99,109,123,131,139
137,154,162,159,155,144,130,124,129,135,138,134,131,133,134,135,135,140,142,143,143,142,142,140,138,139,137,135,137,138,135,132,135,136,139,133,117,87,58,48,63,96,104,97,94,95,96,98,102,107,109,110,110,109,105,101,104,106,106,110,116,126,135,135,128,120,108,92,89,95,111,130,139,140,140,141,141,139,138,136,132,128,124,126,126,114,80,53,43,50,65,86,101,109,109,115,123,127,128,124,113,107,106,100,93,91,93,94,96,101,98,91,87,85,86,92,95,95,96,99,108,122,134,136,133,130,127,131,132,136,130,121,107,96,91,97,106,124,134,141,147,145,144,152,150,150,154,167,178,178,176,176,172,163,159,160,155,150,142,139,144,156,153,133,110,96,100,111,104,90,86,93,104,117,124,105,77,64,63,67,67,68,74,79,80,79,75,68,65,64,64,73,81,93,108,100,77,73,85,94,90,95,102,106,100,94,109,122,117,110,106,112,116,102,97,108,118,117,114,119,130,135,131,129,126,123,108,98,95,111,133,142,133,125,142,141,92,63,53,51,50,47,45,43,47,53,54,68,97,96,96,100,105,117,124,126
109,150,166,162,160,152,130,117,120,126,128,128,130,133,129,128,128,135,139,140,141,143,143,141,140,141,139,136,139,139,138,137,139,137,138,135,115,84,57,43,56,92,110,103,102,99,97,94,97,101,105,105,107,106,101,99,101,103,105,110,116,123,131,136,134,128,118,99,77,60,65,92,120,129,130,130,131,132,133,134,131,128,127,130,133,126,97,66,51,53,69,94,115,126,123,130,135,134,133,132,128,116,111,109,104,104,110,112,108,111,104,97,93,92,93,97,106,112,110,109,117,126,134,138,137,133,127,124,125,124,120,118,109,106,105,106,109,113,122,127,134,134,136,145,146,145,150,162,173,169,161,160,162,163,157,133,120,113,107,108,125,148,164,156,129,101,94,97,95,89,94,111,126,130,120,100,80,70,67,69,70,77,94,101,95,85,76,70,67,67,64,70,76,80,86,85,79,86,102,103,92,90,96,102,103,103,128,140,121,102,91,99,112,110,110,120,130,133,128,128,128,130,125,116,111,109,109,109,108,110,121,128,125,121,135,140,105,75,63,58,60,57,47,41,45,53,59,75,101,102,100,96,99,111,117,104
88,140,160,161,156,152,142,128,121,119,115,115,117,118,115,113,118,128,133,135,137,141,141,143,140,139,142,140,141,142,143,143,144,143,142,136,118,89,66,54,72,100,110,105,105,104,104,103,106,112,116,113,110,107,99,96,98,103,105,108,114,121,127,130,132,132,128,101,58,30,27,48,88,115,117,116,118,123,128,128,127,128,126,129,138,138,126,103,88,87,97,118,134,137,134,136,139,139,132,128,124,118,110,107,103,95,108,121,126,127,120,109,102,100,99,100,110,117,116,118,124,130,135,141,142,140,134,126,118,112,105,103,97,95,95,95,95,89,84,87,92,101,110,118,121,128,135,146,151,136,124,125,136,143,129,99,79,70,63,63,79,113,148,162,148,126,110,108,110,111,123,139,144,136,119,103,91,79,75,73,73,89,120,128,110,91,80,75,69,67,67,69,73,78,81,82,90,108,115,103,91,89,97,103,98,103,118,124,108,96,90,100,105,101,102,120,135,141,137,134,133,134,130,125,114,106,107,115,120,113,109,111,114,116,127,136,120,88,73,67,65,61,50,41,41,50,59,88,110,106,100,93,95,106,109,91
102,143,156,155,152,151,151,140,128,117,107,107,109,107,106,102,106,119,126,124,126,128,131,138,140,141,143,144,145,145,144,144,145,145,141,133,121,103,90,85,96,107,105,101,104,106,110,116,121,123,124,118,109,104,100,99,102,107,109,108,106,104,109,120,129,133,129,99,51,21,15,27,61,103,112,109,111,117,125,125,124,126,123,116,116,130,142,142,133,129,132,136,138,135,133,135,138,137,128,122,118,115,112,108,94,81,92,103,92,87,87,93,104,111,107,102,110,118,118,122,127,133,138,141,141,142,138,132,123,113,105,97,91,86,84,81,84,78,68,68,72,78,84,92,104,114,118,123,117,99,89,94,114,126,107,80,66,51,41,38,47,79,127,155,154,145,134,130,129,135,145,150,140,123,111,103,97,89,81,77,80,104,127,126,104,89,79,76,72,70,73,73,76,80,87,93,109,124,118,103,99,110,114,103,91,97,114,115,98,96,109,117,111,100,95,104,120,129,128,130,131,131,132,134,132,124,110,110,118,117,111,106,105,112,122,138,139,108,78,69,65,58,48,41,43,51,73,108,126,113,102,93,94,107,118,105
131,147,153,148,144,145,150,146,133,118,107,112,113,105,100,100,103,114,116,113,112,113,114,118,124,131,134,138,140,139,136,135,137,136,128,117,108,99,96,100,100,98,96,100,105,111,117,123,125,126,125,119,112,107,105,105,109,112,112,108,96,84,87,106,126,131,127,103,58,27,17,27,60,101,108,105,112,120,126,125,124,123,113,86,65,87,132,148,144,141,140,140,140,133,131,132,134,131,124,116,110,112,118,120,110,98,93,63,39,36,42,53,84,115,111,101,109,118,119,122,127,135,141,142,142,142,136,133,128,120,112,104,99,92,88,82,82,78,70,70,74,75,76,86,102,110,107,99,89,81,78,86,104,115,99,77,65,47,38,36,42,72,122,148,140,136,131,129,130,137,143,136,115,99,94,94,96,92,88,81,82,98,109,100,88,81,79,75,73,72,70,74,75,82,95,109,124,128,118,113,126,139,136,113,102,113,128,119,105,109,125,128,127,116,107,108,121,128,126,125,126,126,127,138,141,141,127,111,106,112,115,110,104,113,125,139,155,142,104,76,64,57,47,45,51,68,107,138,134,119,108,98,99,113,130,133
139,147,151,143,137,140,145,144,132,121,113,115,112,101,100,104,103,108,111,107,103,101,98,98,101,107,109,112,118,117,115,114,115,114,109,102,95,88,86,91,93,91,97,109,119,123,127,126,125,124,124,122,119,116,115,116,117,117,113,108,97,84,86,104,120,125,126,117,86,52,38,52,84,108,107,104,113,124,125,125,124,121,109,77,56,70,120,143,143,139,134,134,135,131,125,127,132,130,124,114,106,105,108,113,124,127,101,41,20,23,26,24,51,104,109,100,108,117,118,119,125,131,141,143,143,142,139,134,129,124,117,111,103,99,93,89,86,80,79,81,87,87,88,96,107,106,99,90,84,82,80,87,104,115,98,75,61,52,42,37,42,77,127,140,126,117,115,115,120,125,126,115,99,89,87,89,95,97,94,89,88,92,91,88,85,84,82,77,74,70,72,70,72,82,102,120,126,121,119,129,143,151,143,125,124,133,138,128,122,122,125,126,128,129,131,129,130,135,128,125,120,118,122,131,141,147,143,128,109,104,109,107,111,128,134,135,152,164,143,105,76,60,52,56,72,97,133,150,136,126,115,107,107,111,124,138
132,144,146,139,132,135,143,144,138,129,126,127,114,106,111,109,105,110,114,109,103,99,97,93,92,93,94,92,93,94,95,95,96,98,99,101,98,90,90,95,99,102,111,127,133,130,118,108,111,114,117,120,121,121,125,126,125,122,114,107,104,101,103,108,111,114,121,124,115,95,87,95,110,118,114,107,117,116,109,120,124,124,121,104,90,103,133,143,142,137,132,128,126,126,121,124,133,133,127,117,108,101,97,95,102,119,97,38,18,17,20,20,39,97,110,100,108,115,116,120,124,129,139,143,143,142,142,138,133,129,123,118,109,102,95,92,89,89,90,94,101,103,103,110,111,107,101,95,92,89,84,86,103,120,109,86,69,59,50,43,57,95,130,133,117,106,105,108,117,117,112,100,89,86,84,88,96,101,98,97,96,99,98,95,96,91,86,80,75,72,72,65,68,80,97,113,118,118,129,143,145,139,125,120,128,134,132,124,127,126,121,123,129,134,139,138,138,138,134,136,128,125,123,121,123,136,146,142,121,103,98,99,131,151,145,132,137,153,157,139,111,95,93,93,99,110,131,141,136,128,114,106,99,92,106,125
134,143,141,132,128,132,143,148,144,139,137,139,129,123,122,120,114,122,127,118,112,115,113,105,100,96,92,88,85,82,84,85,88,90,94,103,110,107,106,111,118,122,128,135,137,123,96,84,91,105,109,116,121,126,129,132,131,128,121,114,110,109,105,104,106,104,108,120,125,122,121,123,124,127,125,120,124,99,87,114,127,125,125,126,129,134,142,143,142,137,131,123,119,118,121,127,138,132,124,119,113,111,102,96,98,116,104,52,23,18,21,27,51,102,108,99,107,115,118,119,125,130,138,143,144,143,143,140,141,138,133,127,116,106,97,90,87,88,93,99,106,110,113,115,115,113,110,109,107,95,78,74,88,106,119,112,97,87,77,77,94,122,134,127,111,97,93,100,110,111,102,90,80,78,80,88,100,106,102,104,109,111,114,112,110,102,95,85,77,72,66,61,69,86,96,104,110,118,133,142,141,128,118,118,124,129,125,120,125,124,122,120,126,133,135,133,134,137,139,143,142,136,133,123,114,117,133,137,124,109,97,99,127,157,143,124,128,134,139,141,136,140,143,133,121,116,125,133,132,126,116,108,95,92,107,128
141,144,138,128,125,128,143,152,148,144,143,143,139,133,131,130,132,135,136,131,127,130,131,124,117,110,106,99,92,87,85,88,92,93,98,106,117,120,122,128,132,133,136,140,134,115,87,76,91,109,116,119,121,128,133,136,133,128,126,131,131,116,102,98,95,92,92,107,123,122,123,130,129,128,132,132,131,109,99,122,131,126,123,125,128,129,118,101,107,122,128,122,115,115,122,130,138,132,124,119,121,125,117,108,111,120,117,75,41,33,39,51,77,111,112,101,107,115,121,123,126,131,140,143,144,144,143,143,143,143,142,137,127,116,104,94,87,85,88,94,98,100,102,107,110,111,113,113,111,93,68,57,63,75,98,116,122,121,117,112,120,127,127,119,105,92,88,91,100,106,100,91,86,82,87,96,101,106,107,110,116,123,130,134,126,110,97,86,78,70,59,58,73,92,100,100,96,108,129,139,132,121,114,121,128,128,125,124,125,124,118,110,115,128,126,126,125,131,137,141,143,142,140,133,116,103,105,114,118,113,101,103,114,131,130,125,125,128,129,129,137,151,159,151,136,126,124,125,126,126,123,114,110,111,121,135
146,146,136,125,123,130,149,153,147,144,143,143,141,139,139,143,142,143,143,141,139,139,135,132,126,121,119,116,110,101,99,102,107,109,110,116,122,127,130,134,136,137,140,142,134,117,97,94,110,129,133,128,128,132,139,139,133,127,124,129,132,125,114,104,90,84,86,102,125,123,120,131,137,133,129,127,122,121,127,137,134,126,120,120,123,112,75,52,58,89,120,122,113,113,119,128,130,122,120,125,129,131,120,112,114,121,125,108,80,68,70,89,103,114,119,106,107,117,122,124,129,135,141,143,143,143,143,143,144,144,144,143,138,128,118,107,96,89,88,89,88,87,87,92,96,99,99,98,100,88,66,48,47,56,72,90,106,115,117,110,104,109,112,109,104,96,91,92,97,105,102,99,100,102,105,105,104,104,108,110,115,123,135,146,139,114,96,85,76,65,54,59,81,97,100,88,79,92,119,128,125,122,123,129,133,130,130,129,128,125,116,103,104,114,110,114,116,120,126,132,136,134,132,131,116,96,89,100,110,111,106,111,121,131,132,128,125,126,126,124,128,138,150,149,143,129,122,120,122,125,123,113,115,123,133,142
153,148,137,124,125,136,150,153,145,142,139,142,143,143,141,142,143,144,143,142,144,135,125,117,112,107,109,117,116,110,110,117,123,126,124,129,133,134,135,135,136,136,136,136,135,128,121,121,132,142,145,143,139,136,137,134,128,125,123,125,124,113,118,123,107,91,99,123,137,127,121,128,134,121,97,81,74,80,101,127,135,128,122,121,121,100,53,34,42,72,112,122,114,112,117,121,100,77,82,107,126,131,128,120,119,119,125,128,130,127,128,135,127,115,124,116,110,118,121,123,126,134,138,141,142,143,143,143,143,144,143,143,142,136,129,123,114,106,99,94,87,85,82,82,82,84,82,82,86,84,72,58,54,56,65,78,92,101,107,102,96,97,102,102,102,102,100,97,102,106,109,112,119,124,115,109,113,115,119,125,121,120,136,152,143,114,94,82,73,61,53,64,89,98,91,72,68,87,109,120,122,124,130,136,135,133,135,131,128,123,118,108,104,103,103,104,101,104,109,115,117,115,113,112,103,94,94,105,112,111,114,119,127,136,139,131,124,120,116,114,117,123,130,131,129,122,116,115,118,119,117,108,109,127,142,151
159,152,136,125,129,143,153,150,143,133,131,141,144,144,143,143,144,144,144,143,143,137,119,104,95,92,99,108,109,107,117,128,134,137,136,138,140,140,136,134,136,136,135,134,136,138,139,139,142,144,149,153,147,140,135,133,131,128,124,123,116,96,92,115,126,123,134,146,142,128,127,131,119,84,56,42,39,42,52,76,108,123,126,128,128,108,64,38,46,79,114,120,112,112,116,113,74,51,59,88,108,125,143,142,127,122,123,126,136,145,146,143,133,122,126,120,116,121,120,115,114,123,130,133,135,136,135,136,138,142,144,144,141,134,127,125,125,121,112,104,96,90,87,84,81,80,81,82,85,86,81,75,70,70,76,87,97,106,109,107,101,100,103,103,105,109,106,100,98,104,112,120,129,132,118,111,126,132,129,137,130,120,132,147,136,109,90,78,68,59,54,69,92,95,78,58,58,81,106,118,122,128,134,138,137,135,135,133,128,123,116,108,100,97,93,93,91,92,91,94,96,96,96,97,100,104,112,118,121,123,124,124,128,132,133,132,120,112,104,104,109,115,116,110,109,107,107,109,112,115,118,117,111,127,151,161
162,151,135,129,135,146,158,153,140,125,124,135,141,143,143,143,143,144,143,142,143,142,133,118,104,100,102,102,97,99,110,124,128,128,129,131,134,138,136,134,135,137,137,136,138,143,144,143,143,146,147,145,142,138,137,140,139,131,125,119,107,85,72,89,125,138,143,143,137,136,137,133,96,59,39,33,30,31,37,47,74,110,124,128,128,120,100,78,84,107,123,117,110,111,118,110,76,61,73,91,107,128,143,133,120,126,129,123,117,126,129,129,130,124,119,118,121,127,123,113,109,113,121,126,128,125,118,117,126,135,141,143,142,133,122,115,114,118,117,112,106,101,96,93,91,90,91,93,93,91,91,89,88,91,95,102,104,107,107,109,107,108,110,110,112,112,103,95,94,101,109,118,120,115,102,95,101,113,117,126,128,120,126,133,120,100,87,75,65,57,56,72,94,90,61,42,47,75,107,121,128,132,136,137,139,137,136,135,130,125,116,107,99,94,90,89,88,87,84,85,86,90,90,96,102,114,125,127,129,134,134,131,130,132,132,128,117,114,107,105,113,117,109,101,101,99,96,99,103,109,120,130,128,139,156,165
155,144,134,130,132,142,153,154,137,120,118,128,135,141,143,143,144,144,141,142,143,143,143,137,130,121,114,106,97,96,104,116,122,123,123,124,128,134,134,132,131,135,135,134,135,142,143,142,141,144,144,138,132,130,133,138,141,133,127,121,108,89,79,95,120,125,125,126,123,132,141,134,87,54,38,33,29,31,37,45,61,98,116,120,123,123,121,118,121,124,120,114,111,117,120,103,87,85,91,101,117,134,134,123,124,130,128,117,111,116,120,132,134,128,119,119,122,128,129,124,116,112,109,112,121,122,112,110,119,128,133,136,139,138,128,115,108,107,111,112,110,108,105,102,100,99,99,99,98,97,96,96,99,102,104,105,103,102,103,103,107,112,116,119,118,110,96,90,95,103,110,110,103,91,85,84,88,100,109,111,109,109,112,110,101,94,84,72,63,53,57,74,95,87,53,36,42,74,112,128,134,137,140,138,140,141,139,136,133,128,118,110,102,96,90,87,86,86,87,87,87,91,94,99,102,113,123,126,132,136,135,130,128,132,134,126,122,128,130,128,134,133,120,111,109,105,101,101,106,115,130,143,150,154,159,162
149,143,140,131,123,134,153,153,139,124,118,119,125,134,139,142,143,143,143,143,144,143,143,142,139,132,128,123,114,110,112,121,127,129,129,128,130,134,136,134,133,132,125,115,115,128,140,140,139,138,137,133,130,128,125,128,134,132,128,124,119,106,100,104,106,105,109,110,108,119,132,133,92,57,42,36,31,37,45,48,59,98,113,108,107,115,120,122,123,119,105,97,104,116,114,103,96,93,94,104,124,129,120,119,120,120,116,110,107,118,118,131,137,135,126,120,121,125,129,131,124,111,95,91,107,123,122,120,124,127,128,130,135,140,139,128,117,110,108,108,108,107,107,109,108,106,104,101,98,96,97,101,105,106,106,105,103,101,97,94,98,108,117,121,116,105,96,95,104,112,109,102,90,77,79,85,93,100,102,94,95,101,102,97,92,87,75,64,58,52,58,78,99,94,68,51,59,88,118,134,139,142,142,142,142,143,141,139,135,129,121,114,108,100,95,90,89,90,89,91,91,92,94,99,103,112,119,117,122,127,126,124,127,134,136,130,137,154,159,163,177,172,147,135,133,127,116,112,122,139,153,164,166,164,163,158
148,152,152,137,125,132,149,152,140,128,119,117,120,124,128,132,138,142,144,144,144,143,144,144,143,139,139,138,134,129,130,132,138,141,143,141,140,139,139,139,138,132,117,96,94,115,136,140,136,132,129,133,139,131,123,124,129,131,128,126,125,119,110,101,95,96,103,106,104,110,122,130,109,68,52,43,36,41,50,56,74,108,118,110,104,108,113,114,114,109,98,86,91,96,101,105,98,90,90,106,120,113,110,113,112,111,110,107,106,116,120,127,134,141,130,119,116,120,125,128,126,114,95,90,101,120,128,130,129,124,121,125,132,139,143,142,135,127,119,115,112,110,113,119,120,117,115,110,103,99,100,106,111,114,114,111,108,104,97,91,95,108,118,119,114,109,106,111,119,120,109,101,91,82,88,96,98,96,94,93,94,100,100,95,89,79,65,54,53,52,61,84,101,108,100,90,96,111,128,135,141,143,142,143,142,142,142,140,139,134,128,123,117,109,104,100,97,95,92,91,92,93,96,99,104,108,112,110,111,117,118,121,128,140,135,138,159,171,178,190,207,199,162,152,159,151,135,127,139,155,170,179,180,175,162,152
156,167,169,153,143,139,146,146,137,128,120,117,118,118,120,124,128,136,141,143,144,143,143,143,143,142,141,143,141,139,139,142,144,144,144,144,143,141,139,138,139,137,122,101,97,114,136,143,138,129,123,130,141,131,123,122,128,129,128,126,123,119,109,98,92,94,100,104,100,101,112,122,122,93,72,60,54,57,67,84,105,115,114,106,101,102,104,105,104,100,92,87,95,90,92,99,92,85,91,99,103,103,108,111,111,112,111,109,108,115,124,127,123,126,125,121,117,117,123,128,125,119,106,102,111,124,128,124,112,104,108,119,131,139,143,144,143,141,136,130,127,123,126,131,136,134,131,128,123,114,114,116,120,123,122,119,117,112,106,101,106,116,123,122,120,121,125,128,128,119,111,114,108,103,107,109,106,102,102,102,102,103,103,99,91,76,61,51,52,53,66,88,104,116,122,122,123,124,132,137,141,138,137,140,142,141,142,142,139,136,132,128,124,118,114,114,109,104,98,96,96,94,97,100,104,105,108,106,111,114,122,122,126,131,136,157,168,168,171,187,201,184,152,158,177,162,147,143,152,163,177,183,183,176,162,153
167,180,184,174,161,153,146,140,133,130,127,125,123,119,119,121,125,131,135,137,140,140,141,143,142,141,142,138,131,128,129,134,140,141,140,140,139,133,126,124,126,128,128,122,118,123,131,140,139,129,122,125,128,123,121,123,128,129,127,125,123,119,110,99,92,89,92,98,99,97,99,108,120,115,100,93,94,102,112,114,110,108,106,99,92,91,93,93,91,88,84,87,92,87,89,94,87,84,90,93,93,99,104,107,109,112,112,110,111,114,118,104,78,70,82,107,119,121,126,125,117,102,87,81,95,117,126,110,88,81,93,111,128,136,142,144,143,143,143,143,141,140,139,140,141,141,142,143,141,137,134,133,133,131,130,128,124,121,119,119,122,128,131,131,132,135,138,131,119,111,111,123,127,127,127,126,120,117,115,111,109,108,107,102,96,82,63,52,52,54,68,90,107,118,124,125,126,128,134,139,138,128,124,128,138,142,141,141,140,135,132,132,130,126,125,120,119,115,109,107,103,101,101,102,104,104,106,105,108,112,121,122,124,127,134,142,141,143,149,159,163,145,138,149,164,158,151,149,154,163,170,176,177,173,163,159
169,179,182,177,164,150,140,137,136,136,133,134,132,128,125,124,127,128,129,128,130,132,135,138,137,139,138,127,116,111,114,119,127,131,131,132,130,126,120,117,117,118,122,129,130,121,118,128,135,130,121,119,118,117,120,125,128,127,126,125,123,122,115,104,94,88,87,90,93,94,93,96,107,110,112,118,119,121,120,105,98,105,103,93,85,84,84,80,79,77,78,85,85,80,85,95,96,95,88,86,88,92,100,105,107,110,110,110,113,115,106,74,43,37,46,78,111,122,126,120,101,67,45,41,51,82,114,107,80,72,88,110,122,127,133,142,142,138,139,138,138,140,143,141,139,138,139,142,144,144,143,143,142,141,138,136,133,131,132,133,134,136,138,141,142,142,139,122,104,104,109,121,131,137,137,135,133,129,127,122,118,114,112,108,101,88,67,56,53,57,70,93,109,120,125,125,125,130,134,140,137,121,110,115,128,135,135,136,132,132,133,134,135,132,130,128,128,124,122,117,111,107,105,104,108,106,106,106,106,111,117,122,124,124,121,124,131,133,132,132,137,132,137,145,153,154,148,148,151,155,160,163,168,169,162,162
159,162,164,162,149,140,138,140,142,140,141,143,143,139,134,130,129,129,129,128,128,128,128,131,135,134,131,122,113,107,107,113,121,127,127,126,125,122,122,125,126,120,119,127,129,116,108,113,123,127,122,114,114,117,123,125,126,125,124,123,123,122,119,109,99,90,86,85,87,90,91,92,94,92,99,111,113,114,108,97,95,103,105,97,84,79,77,72,72,70,74,84,81,76,84,95,102,103,89,84,85,92,99,103,105,106,107,107,112,114,101,65,39,33,39,68,105,118,122,117,89,48,26,21,27,51,99,113,91,80,92,110,116,117,126,135,128,125,132,137,137,136,139,141,137,132,128,129,136,141,143,143,143,144,143,142,140,138,138,133,130,132,132,134,134,129,124,114,108,109,115,128,137,142,142,141,140,138,136,132,128,123,120,114,106,92,70,58,57,58,72,95,111,122,126,124,122,127,134,141,138,124,111,112,120,125,128,126,122,122,127,131,136,137,135,137,135,133,130,124,120,117,114,112,113,109,107,106,107,112,114,119,120,121,125,130,135,132,129,128,131,136,143,150,153,153,147,143,143,147,152,153,156,157,156,154
145,146,146,147,143,141,143,144,142,138,139,143,144,143,138,136,134,136,137,135,134,131,129,128,127,125,128,128,123,121,119,120,124,128,128,128,127,125,128,133,137,133,127,129,133,120,103,95,99,110,118,114,116,121,126,125,124,122,121,121,121,121,121,114,104,95,88,84,84,87,88,89,87,82,82,93,100,106,104,98,98,99,99,96,87,78,77,77,75,75,75,81,79,76,85,94,101,98,85,80,82,87,92,94,96,96,95,97,105,113,106,80,53,43,52,81,108,113,114,113,91,51,27,20,24,47,89,111,96,84,88,104,109,112,124,125,111,118,126,128,133,131,131,141,139,129,119,115,119,124,129,135,136,136,136,135,136,136,135,135,135,136,130,122,116,109,104,104,101,102,117,132,138,144,143,143,142,141,140,138,134,131,128,122,113,97,77,60,57,58,69,92,112,123,128,125,120,120,129,139,141,135,126,125,123,123,128,124,117,117,119,124,129,133,138,141,140,138,135,128,127,126,124,122,120,111,109,110,113,117,122,128,130,139,143,146,144,135,132,130,135,140,142,143,143,143,143,140,139,143,147,145,146,147,144,144
144,143,143,140,139,142,145,143,137,134,136,141,143,144,143,142,141,143,143,143,142,140,134,123,105,96,101,115,128,131,127,121,116,113,116,125,131,132,133,137,141,140,134,133,136,122,96,75,75,90,109,114,119,124,124,123,121,120,120,120,120,120,121,117,109,101,92,86,85,85,85,88,90,88,86,89,94,100,100,97,102,103,97,87,78,76,87,89,81,78,78,80,81,81,91,95,96,89,79,76,77,79,81,84,85,82,77,76,82,100,110,103,90,80,87,104,111,106,99,99,93,68,43,34,38,58,85,95,87,78,81,95,105,113,126,115,102,111,96,81,95,116,123,138,141,132,119,112,110,110,113,117,120,122,123,123,124,124,125,127,133,136,132,122,117,108,94,88,85,89,110,126,130,140,143,144,143,143,142,141,138,132,128,125,121,106,88,68,60,60,68,87,109,124,129,128,123,118,121,132,140,141,140,138,131,129,132,132,128,122,119,123,127,132,137,142,143,141,139,138,134,132,131,130,128,122,118,120,120,124,128,134,141,148,153,152,147,142,141,141,142,142,142,141,137,135,135,135,138,143,145,145,143,142,138,141
149,149,145,140,135,136,135,133,131,133,137,142,144,144,144,144,143,143,141,143,144,143,133,103,78,69,72,79,98,121,121,103,85,79,84,97,120,137,140,140,142,140,135,132,129,116,87,64,61,79,103,116,121,124,123,121,120,119,118,118,118,118,120,120,116,109,102,96,91,90,89,89,90,89,86,85,87,94,94,89,91,96,93,82,77,79,90,88,80,81,81,80,82,88,96,96,93,87,81,77,76,76,77,79,81,77,69,61,65,81,104,116,114,110,110,111,106,95,85,80,79,74,64,59,63,74,82,82,79,79,84,96,107,119,129,115,98,96,72,57,68,98,123,137,136,128,111,96,90,88,90,96,101,106,111,113,116,117,118,120,126,128,128,121,120,113,95,82,91,102,120,119,112,120,135,141,141,141,142,140,128,114,110,116,121,113,99,81,72,67,69,77,99,118,129,132,129,120,115,125,134,138,140,142,137,134,136,141,140,135,128,124,126,131,138,143,143,143,142,140,140,137,136,138,135,133,130,131,131,133,138,139,141,146,149,148,149,148,145,148,149,149,145,143,139,137,138,141,143,144,144,144,143,142,140,143
146,150,147,142,136,133,131,130,132,137,140,143,144,144,144,143,143,139,136,138,143,143,122,87,64,58,56,58,76,107,115,90,66,58,58,67,91,125,136,132,134,136,132,128,121,107,84,68,68,87,108,118,121,122,121,119,118,118,117,116,115,116,117,117,117,115,111,107,103,99,96,94,92,90,87,85,86,93,96,92,88,89,89,86,84,84,88,86,80,79,79,81,86,94,99,98,95,92,89,86,82,80,81,85,89,86,77,64,64,76,100,117,120,116,111,106,97,86,75,67,61,59,60,64,70,78,80,80,82,86,91,97,105,116,126,123,110,101,82,74,84,109,127,125,112,94,77,68,70,74,79,84,90,94,99,104,107,109,112,118,128,134,135,134,134,128,112,97,109,124,128,119,106,103,112,118,116,120,126,124,109,97,98,108,118,117,109,92,79,76,75,75,90,112,128,133,133,123,117,120,128,132,136,141,139,136,136,140,142,142,133,127,128,132,139,143,143,143,141,142,143,139,138,142,141,139,139,139,140,143,144,146,146,151,151,150,146,144,147,148,149,148,143,143,143,140,141,143,143,143,144,143,139,136,135,140
137,144,146,143,141,138,136,137,139,142,143,144,144,144,143,140,137,133,129,130,137,139,117,82,63,59,56,57,76,111,123,96,68,56,50,51,69,104,117,111,117,128,129,125,116,105,94,86,90,104,119,122,122,120,119,118,117,116,114,113,112,114,115,114,116,117,116,115,112,110,108,103,100,97,96,95,93,93,96,97,95,94,93,90,88,88,87,84,78,76,78,84,90,97,103,103,102,100,98,93,88,87,90,96,100,101,91,75,74,85,103,116,117,113,108,101,92,84,75,65,54,47,48,57,69,80,88,88,88,88,87,84,85,95,108,119,121,118,114,113,118,125,119,101,82,66,57,58,67,78,87,93,96,99,102,106,107,109,111,119,130,135,136,137,138,133,124,115,117,127,131,127,110,99,95,90,85,90,103,108,101,97,103,113,120,122,114,101,87,76,79,80,85,105,123,134,134,128,120,120,123,127,132,139,140,135,135,139,143,140,131,124,127,133,141,142,143,143,143,143,143,141,142,143,143,142,139,141,142,144,144,146,143,147,148,146,143,143,145,148,147,146,143,143,144,143,142,143,143,143,143,141,135,128,124,128
129,140,143,144,143,143,143,143,143,144,144,144,143,143,142,134,128,128,125,125,131,132,117,92,74,67,67,73,94,122,129,111,86,69,59,52,67,95,102,97,104,121,127,125,116,110,107,108,112,119,122,121,119,118,118,117,116,115,114,111,111,111,113,113,114,115,115,115,114,113,111,108,105,104,104,104,103,101,100,101,102,102,100,98,93,85,81,77,73,73,77,84,92,101,107,108,106,102,96,88,77,76,86,93,101,107,106,99,96,100,106,105,100,94,88,85,79,78,78,73,60,51,52,63,79,91,96,98,97,91,78,63,53,59,79,101,112,117,119,117,116,114,107,93,78,68,67,74,84,91,96,101,105,108,114,120,124,124,123,128,134,138,138,139,138,133,128,122,124,132,140,136,115,96,86,78,72,77,92,101,103,105,112,120,126,128,121,112,102,88,87,90,87,100,118,132,135,132,126,124,124,125,128,136,138,134,135,140,142,137,128,124,128,137,142,142,142,143,143,143,142,140,142,143,142,143,142,143,143,143,144,143,142,144,143,143,138,143,143,144,145,143,142,142,144,143,143,144,144,144,144,142,136,127,120,122
131,139,144,141,138,140,143,144,144,144,144,144,144,144,141,128,123,124,127,124,126,127,123,112,102,95,93,97,108,118,125,117,104,91,79,75,88,104,106,101,107,118,121,119,117,116,116,118,119,120,119,119,118,118,117,116,115,113,112,111,110,111,111,111,112,113,113,113,113,111,109,107,106,104,102,99,98,100,102,103,105,103,100,98,92,77,67,66,67,70,78,87,93,101,108,105,98,92,86,75,60,57,68,80,92,104,111,110,105,98,87,77,70,66,60,56,53,57,70,81,78,69,69,78,92,99,101,105,107,98,78,57,42,43,60,86,102,111,113,108,105,106,107,104,99,94,92,93,93,92,92,94,98,102,109,118,129,137,138,139,141,142,142,142,142,138,136,136,138,140,137,128,106,90,85,87,86,87,92,97,99,103,112,119,125,125,123,126,121,105,98,98,93,104,121,131,135,133,130,130,128,126,122,124,129,134,140,143,140,133,123,118,126,138,141,138,138,142,143,143,143,143,143,143,143,144,143,143,143,143,143,143,142,144,143,143,142,143,143,143,144,143,143,143,143,143,143,143,143,144,144,144,143,134,127,126
134,141,143,133,128,134,143,144,144,144,143,144,143,143,136,125,121,127,129,126,126,128,130,132,129,123,120,119,116,115,114,110,98,90,89,93,106,118,116,111,116,119,114,108,108,113,115,116,116,118,117,117,117,116,115,114,114,113,111,110,110,110,110,110,111,112,113,112,111,110,108,107,103,95,81,67,59,60,67,76,87,93,92,89,81,70,60,61,67,74,81,80,63,68,94,96,87,80,75,68,59,54,60,72,86,98,106,106,101,86,69,60,56,53,51,48,47,51,67,87,88,82,81,87,93,96,98,103,108,101,80,60,46,43,56,76,94,105,108,107,104,106,110,109,103,98,96,97,98,96,93,93,94,98,100,105,111,124,135,140,141,141,141,141,141,142,142,142,141,137,130,121,107,97,98,106,107,99,93,93,95,99,109,117,124,120,122,132,133,121,107,100,99,116,128,132,133,134,135,138,138,129,120,116,122,132,142,143,139,124,102,97,112,130,140,139,135,138,142,143,144,143,143,143,144,144,144,143,143,141,143,143,143,143,142,143,141,141,143,143,143,143,143,142,143,143,143,140,140,142,143,143,143,142,135,132
135,138,139,128,120,126,138,143,144,144,144,141,138,131,123,117,121,128,128,127,128,130,135,140,136,130,128,128,122,115,108,94,75,63,65,80,104,121,122,119,119,121,112,105,104,109,111,111,112,114,114,115,115,115,115,114,113,112,111,110,110,109,109,110,111,113,113,111,109,109,108,103,94,74,46,29,24,24,26,30,45,65,74,74,69,66,65,69,76,82,88,72,38,38,73,84,78,73,70,67,63,60,61,69,82,96,103,103,96,81,66,56,48,46,46,47,51,57,76,92,89,81,79,82,87,88,91,96,99,91,74,57,48,46,53,67,80,93,104,109,108,106,98,81,73,70,74,80,89,98,98,97,101,106,106,102,100,106,116,128,136,140,140,140,141,140,138,139,141,136,131,126,121,119,120,121,118,110,101,97,96,101,113,121,117,106,112,130,136,129,119,107,107,127,133,134,133,135,137,142,141,133,124,117,120,130,141,143,134,110,80,70,84,112,135,140,136,136,141,144,143,143,143,144,144,143,143,143,143,143,143,144,143,143,140,144,143,143,144,143,141,142,143,142,143,140,139,134,134,139,143,144,144,143,140,136
136,136,134,124,115,115,126,135,140,142,139,131,124,115,108,111,118,119,112,100,87,85,101,123,129,128,128,130,129,122,111,91,67,52,53,68,95,120,124,121,122,123,117,111,109,110,110,109,109,110,111,113,114,114,114,113,113,111,111,110,110,109,109,110,112,113,109,103,94,90,89,84,68,43,24,18,18,20,20,20,23,38,58,67,70,74,79,84,89,95,98,92,66,58,74,76,74,72,73,75,74,72,73,78,87,94,101,103,98,87,70,59,56,53,50,48,54,67,87,93,87,79,76,76,78,81,86,91,92,84,66,51,45,43,50,60,73,86,99,108,108,95,70,59,60,60,65,72,77,87,95,96,100,106,113,110,103,100,102,109,120,129,136,139,138,128,111,105,128,137,135,134,134,134,131,124,116,109,105,103,104,111,123,116,87,65,74,108,133,131,122,115,121,134,138,137,134,134,139,141,137,136,133,128,126,130,139,143,133,106,73,58,64,88,120,138,137,136,141,144,143,143,144,144,144,143,143,144,143,144,143,144,143,143,141,141,142,143,142,137,137,140,143,143,143,139,135,130,132,139,143,143,144,144,143,140
138,134,130,125,116,110,112,118,123,124,120,116,110,103,104,109,110,102,81,52,29,23,37,78,114,125,127,129,132,126,117,102,84,68,66,75,96,115,122,122,121,119,118,116,115,113,109,105,103,104,107,110,113,114,113,112,111,110,111,110,110,111,112,113,115,112,105,95,82,69,63,56,43,30,21,18,20,21,20,20,21,37,63,78,87,94,97,102,105,104,101,96,89,81,78,75,76,78,85,88,89,89,89,92,94,96,99,103,104,98,85,72,69,67,60,60,69,86,95,93,85,79,76,75,77,81,85,90,92,85,69,57,51,48,53,61,73,82,94,105,104,86,61,51,53,52,57,67,70,79,95,98,99,102,110,117,113,106,103,103,104,111,120,128,128,109,77,64,96,130,137,137,136,134,127,113,104,101,103,106,113,123,128,103,58,37,47,85,123,128,118,118,129,137,139,137,134,132,132,132,133,137,138,134,129,131,139,142,134,111,82,65,63,79,108,130,135,137,141,144,144,143,143,142,140,137,131,129,132,136,140,142,143,143,143,141,141,140,135,131,132,138,142,142,141,135,130,128,132,138,142,142,142,143,143,142
135,131,128,128,125,118,114,115,113,110,107,106,104,102,104,107,105,96,78,48,24,17,30,67,106,122,124,128,130,127,122,116,106,95,88,90,99,111,117,118,117,116,115,114,113,109,104,99,97,98,102,107,110,112,110,109,109,109,110,110,111,113,114,114,114,109,104,96,87,79,76,72,59,45,31,24,21,21,21,24,37,59,82,97,108,113,117,117,112,105,97,91,88,85,81,81,85,90,95,99,104,106,105,103,100,99,99,102,104,104,96,86,80,79,80,86,95,100,99,95,87,79,76,77,82,87,90,95,99,94,85,77,70,67,67,70,75,80,91,103,105,91,72,57,51,51,56,61,65,81,100,106,107,107,109,114,114,112,111,108,104,102,102,106,108,98,85,82,104,127,133,134,130,123,110,99,96,100,108,115,123,130,132,109,65,43,51,86,118,121,114,119,132,138,138,136,134,130,125,122,126,135,139,133,128,130,137,139,131,116,97,80,75,82,102,118,124,129,138,143,143,142,136,126,110,86,60,47,50,65,94,122,136,141,141,139,136,134,130,128,128,134,139,138,135,132,129,129,130,133,136,136,136,134,133,136
121,121,122,126,128,127,125,123,118,111,107,104,104,102,102,102,102,103,103,87,65,57,68,97,118,121,119,122,125,123,121,121,114,104,97,96,102,110,115,115,113,113,113,112,109,105,99,94,91,93,98,102,106,108,107,106,106,107,109,111,112,115,115,116,114,110,105,101,96,93,93,94,90,77,60,47,42,45,53,67,81,94,105,114,120,121,120,118,112,105,97,93,92,92,92,92,95,97,99,103,107,111,112,109,105,102,101,102,101,95,90,87,87,91,98,103,105,104,101,96,90,84,79,80,85,91,96,102,105,103,98,93,89,85,80,77,76,80,92,102,107,104,96,85,76,73,76,81,89,99,107,113,117,116,115,113,109,107,111,114,110,102,95,92,90,92,100,115,127,130,131,130,125,114,103,98,103,113,119,124,128,130,131,127,105,85,85,104,119,114,111,116,132,136,136,136,135,130,119,111,115,128,133,129,127,129,135,138,128,113,98,87,82,87,93,99,106,113,124,135,141,138,128,107,76,39,17,8,8,21,54,96,121,131,137,136,131,128,128,128,128,129,130,129,128,128,129,129,129,129,129,129,128,125,121,121
107,108,111,117,120,121,122,122,119,115,110,108,104,99,96,95,98,105,114,116,115,117,121,124,125,119,111,108,111,114,111,110,106,101,96,96,102,109,112,111,110,109,109,108,106,101,95,91,90,89,94,98,102,104,104,103,104,106,109,111,113,117,118,117,116,113,109,106,103,101,100,101,100,95,88,82,81,87,97,106,111,114,117,119,119,119,119,118,115,109,103,101,101,103,103,101,100,100,100,102,103,106,108,110,109,107,105,102,91,80,78,78,78,81,85,89,97,104,102,97,92,87,85,86,88,93,100,106,107,106,101,96,92,89,87,82,81,85,93,100,106,110,110,110,108,107,109,110,112,112,113,115,118,118,118,115,106,96,93,89,85,87,90,91,87,85,96,113,126,129,129,128,123,115,109,108,115,122,124,126,127,127,128,128,126,117,112,118,118,110,110,115,128,131,132,132,133,129,118,107,106,116,125,127,125,128,135,135,128,111,95,84,84,88,90,90,93,98,109,122,130,129,122,103,75,42,20,10,13,26,59,94,109,117,122,125,123,121,123,126,125,124,123,124,125,127,129,129,128,128,125,125,125,120,113,109
103,105,107,111,113,115,114,112,110,109,109,107,104,99,96,95,96,101,108,113,115,118,123,122,120,112,99,93,98,103,100,97,96,94,91,91,99,106,107,107,107,106,106,105,101,97,93,90,88,89,91,95,100,101,101,102,103,106,109,111,113,119,119,118,118,115,112,108,104,102,101,102,101,98,96,95,98,101,105,110,113,114,115,115,116,115,116,116,115,113,111,110,110,110,108,105,100,96,96,97,98,99,102,106,109,109,108,99,84,80,85,85,86,86,84,80,87,100,102,97,92,86,80,80,84,92,100,104,105,103,99,93,89,89,90,89,86,86,92,98,103,109,111,113,112,113,113,113,112,112,113,113,114,115,116,115,101,76,57,47,42,46,60,81,89,82,84,96,112,123,126,125,123,121,118,118,119,121,121,121,121,122,122,120,115,113,116,121,117,109,111,118,125,127,127,128,128,127,120,111,106,109,115,119,120,126,131,131,128,115,98,87,87,92,92,89,87,88,94,103,108,109,107,102,93,77,60,52,58,79,101,108,106,104,103,103,103,104,108,111,113,117,119,121,122,125,126,127,126,122,116,114,115,111,106,104
101,106,107,109,113,115,116,112,107,105,105,103,101,99,98,96,97,102,108,112,115,117,118,115,109,100,87,84,92,98,96,92,92,91,87,88,94,101,103,104,103,103,103,101,97,93,90,88,88,89,92,96,100,101,101,102,103,105,107,109,111,116,118,117,117,114,111,107,104,103,101,101,99,96,94,93,95,97,99,100,101,103,105,107,109,110,112,111,111,110,110,110,111,110,106,102,97,93,92,92,92,94,97,101,106,109,108,103,91,85,86,87,86,84,80,80,91,101,100,94,85,70,59,59,68,78,89,98,102,101,96,89,84,84,87,86,85,86,90,95,102,106,109,109,110,109,108,108,108,108,107,108,109,109,110,111,102,69,45,42,36,37,48,66,86,85,78,80,93,107,117,120,119,118,117,117,116,115,115,115,115,115,115,110,102,107,116,117,113,110,112,117,120,120,121,121,122,123,121,117,110,108,110,109,108,114,122,124,124,119,106,95,92,95,94,89,81,76,75,77,79,82,82,84,88,91,90,93,101,112,114,110,105,100,96,93,92,94,96,97,101,108,115,117,117,118,119,119,118,112,106,102,100,96,93,97
94,100,102,106,111,113,115,115,111,107,103,99,96,97,98,98,98,100,104,107,109,111,110,105,97,85,78,79,91,97,95,91,90,88,86,88,94,99,100,100,100,100,100,97,93,89,87,87,88,89,93,98,101,101,101,101,102,103,105,107,109,111,113,112,111,109,108,106,105,102,99,95,88,80,75,73,74,75,75,73,72,74,79,87,94,99,102,104,104,104,104,104,105,104,102,98,93,89,88,89,90,91,94,98,103,106,106,107,102,93,87,84,81,80,82,89,97,100,95,82,66,53,50,52,57,68,76,88,98,99,96,88,82,80,80,79,79,82,88,92,100,104,106,107,106,105,104,104,103,103,102,103,103,104,104,105,103,87,64,53,46,47,56,68,86,86,77,74,78,91,105,113,113,112,112,111,110,109,109,108,108,109,109,105,96,96,101,104,104,103,105,109,111,112,113,114,115,116,116,116,114,110,108,103,101,102,108,110,112,112,107,102,99,97,96,90,79,67,61,59,60,64,66,69,76,82,85,88,96,102,103,103,102,101,98,96,94,95,95,96,99,104,108,109,109,110,110,110,110,105,100,96,92,86,82,88
81,87,91,100,106,109,109,110,110,108,104,98,96,95,96,95,95,95,95,95,98,100,98,91,81,75,74,80,91,96,93,90,89,89,89,90,94,96,96,97,97,97,97,94,90,86,85,86,87,91,94,98,99,99,99,99,99,100,101,103,105,107,106,105,104,103,104,105,104,99,90,79,67,58,52,48,48,50,48,47,46,50,56,66,78,88,93,96,98,99,99,99,99,99,97,95,91,88,86,87,88,90,93,97,101,103,103,104,104,104,101,98,96,94,95,95,97,95,84,70,58,52,54,56,56,66,72,84,95,97,97,93,86,80,76,73,74,76,81,88,95,100,102,103,102,102,101,99,98,98,98,98,98,98,99,100,101,100,93,81,74,74,79,87,88,82,77,73,70,78,93,105,108,107,106,105,105,103,102,102,102,101,102,100,92,84,82,87,88,89,92,93,96,99,101,102,103,105,107,108,110,108,105,100,96,97,99,98,96,97,95,95,98,99,98,92,80,68,58,53,53,56,60,65,68,72,74,76,81,88,91,92,93,95,96,96,97,97,97,97,98,99,101,102,102,102,103,102,102,99,94,90,85,80,77,79
65,70,79,92,103,105,105,105,105,105,104,101,99,98,97,95,92,91,89,88,88,84,78,73,73,73,76,84,89,91,89,86,86,88,90,90,92,92,92,93,93,94,93,91,88,86,84,85,87,91,93,96,96,96,95,95,95,95,97,98,100,100,99,98,98,100,103,104,103,94,81,68,57,50,43,41,39,39,39,38,38,42,48,58,68,78,85,90,93,96,97,97,95,95,93,93,90,88,87,88,89,91,93,96,98,100,100,101,102,102,102,102,101,100,98,97,96,92,79,67,59,54,52,53,59,67,77,90,95,95,97,96,91,85,76,72,70,72,73,78,85,89,94,96,96,96,96,95,94,94,94,94,94,93,93,95,96,97,97,97,94,94,94,92,84,76,73,69,66,73,87,99,101,101,100,100,99,98,97,97,96,95,94,92,86,76,72,74,74,75,75,76,78,80,84,86,87,88,90,94,97,98,96,95,95,96,93,87,80,77,77,80,89,95,97,92,82,70,61,53,50,51,54,54,52,54,59,61,65,72,77,80,82,84,85,87,88,91,92,93,93,94,94,95,96,96,96,96,95,93,87,80,75,69,66,65
48,59,74,89,99,101,102,102,102,102,101,100,99,98,96,93,89,86,84,82,78,73,67,66,70,76,81,84,87,88,85,82,84,86,86,87,87,87,87,88,89,90,91,89,87,85,84,85,88,90,92,93,93,92,91,91,91,91,92,93,95,95,93,92,93,98,102,102,100,91,79,67,59,52,48,46,45,45,45,43,45,46,52,60,69,77,84,88,92,95,96,95,94,93,92,92,91,90,90,90,91,92,93,95,97,98,98,99,100,100,100,100,99,98,97,96,95,94,86,76,68,64,61,65,72,80,90,94,94,95,95,96,94,89,80,73,70,67,66,67,72,77,82,87,90,91,91,90,90,90,91,91,90,90,91,92,92,93,93,91,89,88,88,85,76,70,69,65,64,72,86,95,96,96,96,95,95,93,93,92,91,91,89,86,81,74,67,67,67,67,67,67,67,69,70,72,73,75,77,81,86,88,88,88,92,94,88,77,68,67,68,72,79,89,92,87,77,65,57,48,43,41,43,45,45,48,53,56,58,64,72,76,78,78,78,78,79,82,86,88,88,89,89,89,89,90,90,90,90,86,78,69,60,52,47,46
46,59,74,86,93,96,98,99,100,99,99,98,96,94,92,88,82,78,74,72,70,69,68,70,76,80,81,84,85,85,80,79,79,79,80,80,80,80,80,81,82,85,86,87,86,85,85,86,88,89,90,90,89,89,88,87,87,87,88,89,90,89,87,87,89,94,98,99,96,91,82,76,70,66,65,63,63,63,63,63,63,65,67,73,77,80,85,89,92,94,95,94,93,93,92,92,92,92,92,91,92,92,94,94,95,96,97,98,98,99,99,99,98,97,96,96,94,93,91,87,84,81,82,84,87,92,94,95,94,94,95,96,95,92,86,78,73,67,60,59,61,65,70,77,82,86,87,87,86,86,86,87,88,88,89,89,89,89,87,85,84,82,81,77,69,65,63,61,65,73,84,90,92,91,92,91,90,89,89,88,87,86,85,82,79,73,67,66,66,65,64,63,63,64,64,65,66,68,70,74,78,81,81,82,86,86,80,69,64,64,67,72,77,84,86,81,73,61,52,46,42,42,45,47,51,56,60,60,61,65,70,75,77,77,77,76,76,78,81,82,84,84,85,85,85,85,85,84,82,78,72,63,56,47,42,42
57,66,73,78,84,88,90,92,93,93,92,90,89,85,82,77,73,68,64,64,66,70,74,77,79,80,81,82,84,80,77,74,73,74,74,74,74,75,75,76,77,78,80,84,84,84,84,85,86,87,87,87,87,85,85,84,84,84,85,85,86,86,84,82,84,87,91,92,92,90,86,85,82,82,82,82,82,84,84,84,82,82,82,82,84,86,88,90,92,93,92,92,92,92,92,92,92,92,92,92,92,93,93,93,94,95,96,97,98,99,99,98,98,97,96,96,95,94,93,91,91,91,92,93,93,94,94,95,94,94,95,95,95,94,90,85,80,73,63,54,52,54,59,66,73,77,80,82,81,80,80,81,82,84,82,82,82,81,78,76,75,76,75,69,63,58,58,60,66,73,79,86,89,89,89,88,87,87,86,85,85,84,84,80,78,74,70,69,68,66,65,63,61,61,61,63,65,67,69,73,75,77,77,76,74,72,69,64,60,59,64,72,77,80,81,79,74,66,60,57,56,58,61,66,68,68,65,60,58,58,59,61,65,69,74,76,75,76,78,79,80,80,80,81,80,78,77,77,76,74,70,65,60,54,52,53
69,70,70,72,74,78,80,81,81,81,80,79,77,74,70,68,66,64,63,64,68,74,78,79,79,80,81,81,82,79,74,69,68,68,69,70,70,70,70,72,73,75,77,79,81,81,82,82,84,85,84,84,84,82,81,81,80,80,81,82,84,82,81,80,80,82,84,85,86,87,87,86,86,87,89,90,90,91,92,91,90,90,89,89,89,90,91,91,91,91,92,92,92,91,92,92,92,92,92,92,92,93,93,93,94,95,96,97,98,99,99,98,98,97,96,95,95,94,93,93,93,94,93,94,94,94,94,94,95,94,94,95,95,95,93,91,88,82,72,60,54,53,56,60,65,67,72,75,75,73,72,74,75,74,73,73,74,73,70,68,67,67,66,61,57,54,54,60,67,74,78,82,86,86,86,86,86,86,85,84,84,84,82,81,79,75,73,73,70,68,66,64,63,61,61,63,67,70,73,74,75,75,73,65,56,52,54,58,58,54,57,65,72,76,78,77,77,75,75,75,76,77,78,77,73,65,56,48,45,43,45,45,47,54,65,72,72,72,74,76,77,77,78,78,77,75,74,73,73,74,74,73,70,69,69,69
72,72,70,69,69,72,73,74,74,74,73,73,72,70,68,67,66,65,66,69,73,76,77,77,78,79,79,80,80,78,74,69,66,65,66,67,67,68,68,68,70,73,75,77,78,79,79,79,80,81,81,81,81,80,79,78,78,77,78,78,79,80,79,79,79,78,79,80,80,81,81,82,82,84,86,88,89,91,91,90,90,91,91,91,91,91,90,91,91,91,91,91,91,91,91,91,92,91,92,92,92,92,93,93,94,95,96,97,98,99,98,99,98,98,97,96,95,95,94,94,93,93,94,93,94,94,94,94,94,94,94,95,95,96,95,94,92,90,82,73,66,64,65,67,67,66,68,70,70,68,67,68,68,67,66,66,67,66,65,63,63,63,61,59,58,57,58,61,68,75,79,82,85,85,86,86,85,85,85,85,84,82,82,82,80,78,77,76,74,72,69,67,65,63,61,64,68,73,75,76,76,74,67,56,47,46,50,57,58,54,53,61,69,74,77,77,77,79,81,81,81,81,80,77,68,57,48,42,38,38,38,38,39,47,58,65,67,66,67,69,72,74,74,74,73,73,72,72,72,73,73,74,73,72,72,72
69,70,72,70,72,72,73,73,74,74,74,74,74,73,70,69,68,68,70,73,74,74,74,75,76,77,77,78,78,77,74,70,67,66,66,66,66,66,67,68,70,72,73,74,75,76,76,77,77,78,79,79,78,78,77,76,76,75,75,76,77,77,78,78,78,77,77,77,78,78,78,78,78,79,82,85,87,88,88,89,90,90,90,90,89,89,89,90,90,90,90,90,90,91,90,91,90,90,91,91,91,91,92,92,93,94,95,96,97,97,98,98,97,97,96,95,94,94,94,93,93,93,93,93,93,93,93,93,94,94,95,95,95,95,96,96,94,92,88,82,78,78,78,78,76,73,73,74,74,72,70,69,67,66,66,67,67,66,65,64,63,63,64,64,64,65,64,66,70,76,79,82,84,84,84,85,85,84,85,85,84,82,82,82,81,80,80,79,77,76,74,72,69,66,65,66,69,74,76,76,76,74,67,57,51,52,58,63,61,57,56,63,70,75,76,75,75,78,79,79,80,79,79,76,67,57,48,43,41,39,41,41,42,47,56,63,64,63,61,63,67,69,69,70,70,70,70,70,70,69,69,69,69,69,69,69
65,68,69,70,72,73,74,74,75,75,75,74,73,73,72,70,69,69,69,72,72,72,73,73,74,74,74,75,75,75,73,70,68,68,67,66,66,66,67,68,69,70,72,73,73,74,74,75,75,75,76,76,76,75,74,74,74,73,74,74,74,74,75,76,76,76,76,76,76,76,76,76,76,77,79,81,84,85,85,86,87,87,87,87,87,87,87,87,88,88,88,88,88,88,88,88,89,89,89,89,88,89,89,90,91,92,93,94,95,95,95,95,95,95,95,94,93,93,93,92,92,92,92,91,92,92,92,92,93,93,94,94,95,94,96,96,96,95,91,86,82,81,80,80,78,77,78,79,79,78,76,74,73,72,72,70,68,66,66,67,66,67,68,69,72,70,69,69,72,75,78,82,84,84,84,85,85,85,85,85,85,84,82,82,81,80,80,79,78,78,77,76,74,69,67,69,72,74,75,75,75,74,70,67,65,66,69,70,64,58,59,64,69,73,75,74,73,74,77,78,77,77,77,75,69,59,52,50,48,47,46,47,48,52,56,60,63,61,60,61,64,67,67,67,67,69,69,69,68,68,66,65,64,64,64,65
61,63,65,65,66,67,69,70,70,70,70,70,69,69,68,68,68,68,68,68,69,69,69,70,70,72,72,72,72,72,70,69,68,67,66,66,65,66,66,68,69,69,69,70,70,72,72,72,73,73,73,74,74,73,73,72,72,70,72,70,70,72,73,74,74,74,74,74,74,74,74,75,75,75,76,78,79,80,80,81,82,82,82,82,82,84,84,85,85,85,85,85,85,85,86,86,86,86,85,85,85,85,86,87,88,88,89,90,91,91,91,91,91,91,91,91,91,91,90,90,89,89,89,90,90,90,91,91,92,92,93,93,94,94,94,95,95,94,92,89,86,82,80,78,77,75,75,76,76,76,74,72,69,70,70,68,66,66,68,70,70,69,69,72,72,72,70,73,74,74,77,81,84,84,84,84,85,84,85,85,85,84,84,82,81,81,80,79,78,77,76,76,74,70,68,69,72,74,74,74,74,74,73,72,70,70,72,72,67,61,59,61,64,66,70,70,69,69,73,74,75,75,74,74,70,64,59,57,56,56,54,53,53,56,58,60,60,61,61,63,64,65,64,63,64,65,67,67,66,66,64,63,60,60,60,61
58,58,59,60,61,63,64,66,67,68,68,67,67,67,67,66,66,66,66,66,66,67,67,67,67,68,68,68,68,67,67,67,66,66,66,65,65,65,66,66,67,67,68,68,68,68,69,69,70,70,70,70,70,70,70,69,69,69,69,68,68,68,69,70,70,70,72,72,72,70,72,72,72,73,74,75,75,75,76,77,78,77,78,78,78,79,79,79,79,80,80,80,80,80,80,80,81,81,81,80,80,80,81,81,82,84,85,85,86,87,87,87,87,87,87,87,87,87,87,86,85,85,85,86,87,87,88,88,89,89,90,91,91,92,92,91,92,91,90,89,87,85,81,79,77,75,73,72,70,69,67,65,65,65,66,65,64,65,67,70,68,67,69,70,72,73,73,75,76,77,79,81,82,82,82,82,84,84,84,85,85,84,84,84,82,81,80,79,78,77,76,75,72,69,69,70,72,73,73,72,72,72,72,72,70,69,70,70,69,65,60,59,59,60,64,67,67,66,68,70,72,72,72,70,69,67,65,64,61,60,59,58,58,58,59,59,59,60,61,61,60,60,59,58,59,61,63,64,63,63,61,60,59,58,58,58
56,56,57,58,59,60,61,64,65,66,66,66,66,65,65,65,65,64,64,64,64,65,65,65,65,65,65,65,65,64,64,64,64,64,64,64,64,64,64,65,65,65,65,66,66,66,67,67,67,67,68,68,68,67,68,68,67,67,67,66,67,67,67,67,68,68,68,68,68,68,68,68,69,69,69,70,70,72,73,73,73,73,73,74,74,75,75,75,75,76,76,76,77,77,77,77,76,76,76,76,77,76,77,77,78,78,78,80,80,80,80,81,81,81,81,82,82,82,82,81,80,79,78,79,80,81,82,84,85,86,87,87,88,88,88,88,88,88,86,86,84,82,79,76,74,70,68,67,66,65,64,65,65,66,66,66,67,68,70,69,68,68,69,72,74,75,76,77,77,79,80,80,80,81,81,81,81,82,82,84,84,82,82,81,81,80,79,78,77,76,75,72,70,69,69,70,72,72,72,72,72,72,72,70,70,70,69,70,70,66,63,59,58,58,60,64,65,64,66,67,67,68,68,68,67,67,66,65,64,64,63,61,61,61,60,60,60,59,59,57,57,57,57,57,57,59,59,59,59,58,58,58,57,57,57,56
53,54,56,56,58,59,59,60,63,65,65,64,64,64,64,63,63,63,63,63,63,63,63,63,63,63,63,61,61,61,61,60,61,61,61,61,63,63,63,63,63,63,63,64,64,64,65,65,65,65,65,66,66,66,66,66,65,65,65,65,64,65,65,65,65,65,66,65,65,66,65,65,66,66,66,67,67,68,68,68,68,69,69,69,69,70,70,70,72,72,72,73,72,72,72,72,73,72,72,72,72,72,73,72,73,73,74,74,75,75,76,76,76,77,77,77,77,77,78,76,75,74,73,74,73,74,74,75,77,78,79,80,80,80,80,80,80,80,79,78,77,76,74,72,70,67,66,65,65,64,65,66,67,68,68,68,69,70,72,70,70,70,74,75,76,77,77,78,77,78,78,78,78,78,78,78,78,79,80,80,80,80,80,79,79,78,78,77,76,75,73,72,69,70,70,70,70,70,70,70,69,69,69,69,69,69,69,69,69,67,64,60,59,59,59,60,63,63,64,64,64,64,64,65,64,64,64,64,64,63,63,61,61,61,61,61,60,60,58,57,56,56,56,57,57,57,56,54,54,54,53,53,53,53,53,53
51,52,53,54,54,57,58,59,61,63,63,63,63,63,63,61,61,60,60,60,60,60,61,60,60,60,60,60,59,59,59,59,59,59,59,60,60,60,61,61,63,63,63,63,63,63,63,63,64,64,64,64,64,64,64,64,63,63,63,64,64,64,64,64,64,64,64,64,63,63,63,63,63,63,64,64,64,64,64,65,65,65,65,66,66,67,67,67,67,68,68,68,68,68,67,67,68,67,67,67,67,67,67,68,68,68,68,69,69,70,70,70,72,72,72,73,73,73,73,72,70,72,70,70,70,69,69,69,70,72,73,73,73,73,73,73,73,73,73,72,72,72,70,70,68,66,66,66,66,65,66,66,67,67,68,68,69,70,72,72,73,73,75,75,75,75,75,75,75,74,75,74,74,74,74,74,75,75,76,76,76,76,76,76,75,75,75,74,73,73,72,70,69,69,69,69,68,68,68,68,67,67,68,68,68,68,68,68,67,66,65,63,61,58,57,58,59,59,59,60,60,60,60,60,60,60,60,60,60,60,60,60,60,60,61,60,61,60,60,59,58,58,57,57,54,54,53,53,52,52,51,51,51,51,51,52
50,51,51,52,54,54,57,59,60,61,61,61,61,61,60,60,60,60,59,59,60,59,59,59,59,59,59,59,58,59,58,58,58,58,58,59,59,60,59,60,60,61,61,61,61,61,61,61,63,63,63,61,61,63,63,63,63,61,61,61,61,61,61,61,61,61,61,61,61,61,61,60,60,61,61,61,61,61,63,63,63,63,63,63,64,64,64,65,64,65,65,65,65,65,65,65,65,64,64,64,64,64,64,64,64,64,65,65,66,66,66,67,67,68,68,69,69,69,68,67,66,67,68,68,68,68,68,67,67,66,66,67,67,67,67,67,66,66,66,65,66,66,67,67,67,66,65,65,65,64,64,64,64,65,66,66,67,68,68,68,69,70,70,70,70,70,70,70,70,70,70,70,70,70,69,70,70,72,72,72,72,72,72,72,72,72,72,72,70,70,70,69,68,68,67,67,67,66,66,67,66,66,66,67,67,67,67,67,66,66,65,63,60,58,57,54,56,56,56,57,57,57,57,57,56,56,56,57,57,57,58,58,58,58,58,59,59,59,58,59,58,57,57,56,56,54,53,53,52,52,51,51,50,50,50,50
48,50,51,51,53,54,57,59,60,60,61,61,61,61,61,60,60,60,60,59,59,59,59,59,59,58,59,58,58,57,57,57,57,57,57,58,58,58,58,59,59,59,60,60,60,60,60,60,61,61,61,60,60,60,60,60,60,60,60,60,60,60,61,60,60,60,60,60,60,60,60,60,60,59,59,59,59,60,60,60,60,61,61,61,63,63,63,63,63,63,63,63,63,63,63,63,63,63,63,61,61,61,61,61,61,61,61,63,63,63,64,64,64,65,66,66,66,66,65,63,63,63,63,63,63,64,64,64,64,61,61,61,60,61,61,60,59,59,58,58,57,57,58,59,58,58,58,58,58,59,58,59,59,59,60,60,60,60,61,61,63,64,64,64,65,65,66,66,66,66,66,66,65,66,67,67,66,66,67,67,67,67,67,67,67,67,68,68,68,68,67,67,66,66,66,65,65,65,64,64,64,64,65,65,65,65,65,65,64,64,64,63,61,60,57,56,53,53,53,56,56,56,56,54,53,53,53,54,54,56,56,56,56,56,57,57,57,57,57,57,57,57,56,54,54,54,53,52,51,51,51,51,50,50,48,50
48,50,50,51,53,56,57,59,60,61,63,63,63,63,63,61,61,60,61,61,60,60,59,60,60,59,59,59,58,58,57,57,57,58,58,58,58,59,59,59,58,59,59,59,59,59,59,59,59,59,60,59,60,59,59,59,59,59,59,59,59,60,60,60,60,60,60,60,59,59,59,59,59,59,59,59,59,59,59,59,59,59,60,60,60,60,60,61,61,61,61,61,61,61,61,61,61,61,61,61,60,60,60,60,60,60,60,60,60,60,60,60,61,61,61,61,61,63,61,60,61,60,60,60,60,60,60,60,60,59,58,58,58,57,54,54,54,53,53,53,53,53,53,54,54,54,54,54,54,54,54,56,56,56,57,56,57,57,56,56,57,57,57,57,58,58,59,60,60,61,61,63,63,63,63,63,63,63,63,63,63,63,63,64,64,64,64,65,65,65,65,64,64,64,64,63,63,63,63,63,63,63,63,63,63,63,63,63,63,63,63,63,61,60,60,58,56,54,54,56,56,56,56,54,54,53,53,52,53,53,53,54,56,56,56,56,56,56,56,56,56,54,54,53,53,53,52,51,51,50,50,50,48,48,48,50
47,48,48,51,52,56,57,59,61,63,64,64,64,64,63,63,63,63,63,61,61,61,61,61,61,60,60,59,59,58,59,58,58,59,59,59,59,59,59,59,59,59,59,59,59,59,59,59,59,59,59,59,59,58,59,59,59,59,59,59,59,59,59,59,59,59,59,59,59,59,58,58,58,58,58,58,58,58,59,59,59,59,59,59,59,59,59,59,60,59,60,60,60,60,60,60,60,60,60,59,59,59,59,59,58,58,58,58,58,58,58,59,59,59,59,60,59,60,61,61,63,63,63,63,61,61,61,61,60,58,57,57,54,53,51,51,52,53,53,53,53,52,53,54,54,54,54,56,54,54,54,54,54,54,56,56,56,56,56,54,54,54,54,54,53,53,52,53,53,54,57,59,60,60,60,60,60,60,60,60,60,60,60,61,61,63,63,63,63,63,63,63,63,63,63,63,61,61,61,61,61,61,61,61,61,61,61,61,63,61,61,60,60,60,59,59,58,58,56,56,56,56,54,54,53,53,53,53,53,52,53,53,53,54,54,56,56,54,54,54,54,53,53,53,53,52,51,51,50,50,48,47,47,47,47,48
48,48,50,50,52,54,57,60,61,64,65,65,65,65,65,65,65,65,64,64,64,63,64,63,63,63,61,61,60,60,60,60,60,60,60,60,60,60,60,60,60,59,60,59,59,59,60,59,59,59,59,59,59,58,58,58,58,58,58,58,59,59,59,59,59,60,60,59,59,59,59,58,58,58,58,58,58,59,59,58,58,58,58,59,59,59,59,59,59,59,59,59,58,59,59,59,59,59,59,58,58,58,58,57,57,56,56,56,56,57,57,58,58,59,60,60,60,60,61,61,63,63,64,64,64,63,63,61,60,59,57,54,53,52,52,51,51,52,52,52,52,52,52,53,54,54,54,54,53,53,52,52,52,52,53,53,54,54,53,53,53,52,52,51,50,50,50,48,48,50,53,56,58,59,58,58,58,58,58,59,59,59,59,59,60,61,61,61,63,63,63,61,61,61,61,61,61,60,60,60,60,60,60,60,60,60,60,60,60,60,60,60,59,59,59,58,57,57,56,56,56,54,53,53,53,52,53,53,52,53,52,52,53,53,53,53,53,53,53,53,54,53,53,53,52,51,51,50,50,50,48,48,47,47,47,47
