56,34,40,80,114,136,148,162,156,147,148,170,173,145,156,145,147,129,105,125,136,141,145,152,157,135,130,127,119,124,129,126,134,136,120,115,117,109,67,47,64,91,77,67,81,77,115,146,195,193,183,177,149,135,125,109,83,129,125,66,32,25,24,23,10,19,27,13,9,17,51,48,35,88,110,102,100,95,108,118,117,100,122,111,80,108,145,89,32,21,32,44,77,94,94,98,106,112,118,124,129,140,151,156,156,149,120,91,63,48,23,11,27,32,31,29,30,31,38,40,46,49,49,63,112,156,160,148,136,129,137,143,135,112,106,80,97,119,105,106,121,123,120,146,162,150,143,132,137,118,66,75,86,59,43,60,56,70,78,95,123,120,101,102,124,154,114,75,78,58,83,111,93,69,32,40,52,97,144,172,206,216,201,196,209,204,186,172,183,203,208,202,201,205,201,194,181,162,144,145,148,163,146,150,153,159,159,157,176,177,170,167,157,119,93,156,151,133,111,138,135,159,161,113,102,117,114,91,91,90,76,63,58,76,86,90,111,140,144,145,145,120,113,141,143,140,145,122,110,83,80,83,76,70,68,61
21,15,47,110,156,145,151,145,164,166,166,162,154,168,165,157,141,129,155,152,126,116,124,147,159,137,128,95,91,116,105,95,93,104,131,110,82,100,134,70,45,68,69,86,115,134,154,176,196,199,189,166,131,137,164,164,148,144,136,103,37,13,25,27,22,38,19,16,11,14,15,19,15,28,70,110,141,140,129,132,135,100,73,74,94,119,114,118,84,100,80,87,115,106,94,90,95,104,114,113,131,157,154,157,153,138,100,41,22,15,17,9,23,43,45,41,44,44,49,54,59,77,85,77,104,76,52,69,93,115,134,144,141,132,135,130,131,125,96,82,66,61,106,148,151,154,135,111,68,87,94,69,59,58,46,48,40,43,67,75,92,109,118,111,120,106,104,112,133,66,50,43,42,62,90,109,97,73,61,106,177,192,198,196,203,202,200,191,190,169,140,192,203,206,195,171,126,163,177,161,171,170,181,189,194,193,208,208,196,190,157,160,117,104,85,73,45,120,141,151,150,143,144,143,108,95,104,120,106,88,105,96,72,77,92,126,159,162,168,172,166,174,158,157,169,168,168,86,51,84,79,89,74,53,35,25
29,35,108,154,177,147,147,178,191,190,170,174,173,137,134,134,176,166,163,133,139,163,190,206,175,161,146,162,143,127,126,94,96,150,137,124,120,123,122,103,68,48,66,73,107,137,154,150,152,149,103,98,125,133,150,143,145,127,118,105,83,48,33,42,52,86,55,39,29,22,48,35,50,79,83,90,80,77,105,99,84,76,83,83,56,46,26,23,32,38,44,21,48,79,107,87,89,78,83,88,97,136,127,112,92,77,56,45,28,25,27,49,51,75,98,75,79,77,101,100,114,147,143,125,87,66,60,97,127,119,118,117,116,112,113,124,120,99,108,98,86,118,128,143,152,170,160,143,110,90,89,76,56,40,33,18,19,19,29,41,73,96,120,127,120,125,135,128,129,116,117,126,136,136,133,133,138,134,137,146,131,132,142,155,176,171,185,187,172,132,110,177,185,194,188,183,124,101,69,106,170,173,173,174,190,206,214,201,189,158,117,102,104,81,88,63,55,138,133,154,132,93,124,139,135,128,139,141,151,141,150,138,145,177,183,194,187,188,191,194,177,166,136,112,119,106,93,63,15,38,58,51,85,90,35,21
20,92,157,162,157,138,127,130,160,184,188,175,154,167,186,194,204,181,179,185,196,194,167,171,139,111,90,104,113,132,137,157,166,153,110,121,131,104,107,109,94,74,98,115,68,72,80,114,124,105,90,78,104,140,164,173,173,173,169,174,148,91,59,71,88,140,106,58,48,41,60,50,55,59,55,55,36,22,41,48,88,61,47,50,57,76,67,68,55,55,16,5,23,68,115,109,92,69,69,63,67,98,103,60,23,22,23,55,85,76,91,104,111,129,134,138,135,135,135,130,131,143,140,138,131,130,142,155,140,132,134,128,117,109,88,107,116,133,146,150,152,123,136,141,163,172,167,174,178,182,187,175,159,156,118,56,46,31,14,29,57,49,70,89,123,95,115,125,127,140,166,166,167,162,165,161,177,155,117,131,112,127,121,120,135,128,145,151,130,56,104,154,158,184,165,143,87,55,59,73,84,100,137,161,192,190,173,153,108,106,82,117,79,69,87,32,86,121,140,140,138,123,148,157,158,151,163,169,177,184,181,173,178,177,170,159,132,100,69,38,31,36,50,79,72,65,18,22,27,34,31,72,94,115,103,56
47,133,177,164,121,109,132,150,172,190,199,184,170,156,156,160,167,129,143,158,152,147,133,122,114,112,94,116,114,102,136,155,168,141,133,110,117,69,78,77,82,42,34,44,39,38,47,70,117,143,128,126,129,146,162,170,172,167,170,181,182,158,138,127,120,107,90,62,107,94,70,43,42,44,44,47,75,89,79,108,159,152,129,96,63,70,78,119,156,154,82,33,15,30,75,117,111,77,54,42,34,36,40,27,25,26,24,64,121,132,146,143,142,136,126,119,105,111,125,124,141,155,171,174,187,181,160,162,186,188,185,171,167,152,142,137,115,127,139,153,159,161,158,159,167,174,171,158,146,156,166,168,136,135,118,67,71,76,79,33,31,40,77,107,113,98,126,121,126,155,168,177,173,185,182,169,170,157,135,105,81,88,87,61,77,104,125,123,85,56,74,102,107,105,93,74,72,51,71,73,79,70,163,180,168,172,109,49,35,45,69,81,37,36,58,78,79,62,149,161,162,144,161,157,164,167,175,170,167,152,162,167,152,164,153,96,83,74,30,8,2,1,8,62,47,29,6,9,9,8,6,6,11,17,39,58
52,89,127,94,85,77,78,113,147,178,180,151,129,128,122,99,91,109,157,161,156,143,128,164,175,163,171,168,180,166,153,146,147,147,145,118,62,81,97,74,77,74,60,50,37,34,82,131,141,165,123,102,70,150,167,171,157,164,155,134,115,137,151,113,131,140,97,86,115,101,62,47,42,36,89,100,90,83,80,77,73,81,93,58,49,56,43,73,132,146,125,64,29,34,43,71,102,86,44,25,19,16,21,19,23,35,56,107,141,140,132,117,108,87,95,114,130,141,157,171,172,178,180,186,191,206,198,187,183,189,197,197,191,184,196,191,197,194,192,192,190,181,156,141,163,175,163,146,107,94,100,115,69,59,49,40,57,78,90,73,61,68,82,82,93,112,143,143,135,167,172,183,200,193,186,200,181,154,128,125,111,62,36,32,33,71,68,57,72,37,42,22,30,34,28,28,33,56,68,80,58,145,179,185,138,76,26,22,28,52,43,31,24,67,100,70,18,28,102,145,146,147,147,139,130,141,142,134,134,110,109,131,141,142,137,86,32,45,32,7,5,2,2,6,2,12,22,19,32,23,11,6,6,11,40,56
48,54,69,70,114,153,180,173,169,167,167,114,90,136,158,126,123,116,110,135,161,155,176,169,182,197,201,183,175,165,140,126,130,152,143,138,130,128,122,75,91,103,60,27,28,61,114,138,133,131,55,88,123,142,142,162,151,145,146,105,109,118,130,145,129,80,79,107,115,118,80,34,24,47,87,105,67,45,36,30,43,72,72,59,47,82,78,71,114,154,153,117,94,59,46,53,52,63,45,25,13,13,11,34,86,66,78,82,82,76,105,124,112,124,127,154,169,178,196,185,145,152,145,142,174,171,176,154,132,115,135,183,186,182,169,155,170,163,169,182,174,159,137,112,109,78,84,125,107,63,80,67,38,28,14,34,60,38,75,46,47,46,52,91,103,112,116,115,138,154,138,164,200,214,221,216,209,202,177,140,151,107,68,89,89,90,76,89,69,19,11,6,8,16,24,31,47,51,62,55,122,145,92,70,55,56,69,88,70,44,26,53,58,57,62,48,25,35,36,80,122,119,98,88,91,110,121,132,130,117,108,116,105,133,136,134,53,30,28,6,9,9,13,22,14,53,19,5,22,56,66,44,14,4,12,31
39,91,141,146,146,146,135,154,145,148,131,113,133,144,152,153,159,164,165,179,181,186,182,187,198,185,181,164,141,134,127,108,151,127,125,148,146,127,136,131,89,70,46,34,31,48,50,60,82,111,117,127,132,129,126,138,141,127,106,85,74,73,78,95,111,119,116,95,109,97,97,33,20,56,64,66,72,53,90,89,95,101,100,100,94,84,128,121,124,102,115,112,135,107,55,50,39,23,33,31,26,23,79,102,42,9,18,12,26,19,52,99,62,57,105,112,122,140,162,181,172,136,124,148,133,143,141,148,107,126,194,196,202,190,176,141,150,134,151,117,94,67,62,43,52,32,26,29,30,12,4,7,9,19,31,29,39,40,74,84,96,107,105,101,105,112,106,98,116,124,106,113,140,171,202,194,175,178,170,164,162,134,128,147,106,92,70,88,66,14,2,2,15,36,53,55,49,55,53,137,140,87,52,67,54,46,49,46,55,48,20,22,25,16,16,22,35,30,28,34,73,90,104,150,116,105,97,114,117,139,148,127,136,132,130,107,34,11,10,13,20,16,13,11,8,16,18,7,13,41,100,73,46,48,47,37
99,120,123,121,139,141,148,142,125,151,149,141,144,146,149,140,99,98,132,126,129,142,164,174,149,141,155,168,161,121,78,69,125,115,127,151,169,126,122,118,87,50,42,29,41,31,24,42,44,96,109,134,146,129,120,110,116,118,99,57,46,60,65,52,63,67,72,48,36,83,95,33,28,36,31,26,61,65,66,78,75,66,81,84,91,125,134,128,90,91,87,84,114,119,95,47,22,17,15,25,31,55,133,136,92,39,52,49,77,94,78,121,89,91,76,60,60,62,85,90,96,101,113,88,65,58,109,113,92,104,189,206,213,208,183,168,174,158,136,97,40,46,34,46,66,35,38,16,6,17,8,1,1,3,12,20,28,55,92,113,117,62,47,73,69,56,59,83,118,86,74,134,154,178,184,141,119,128,115,152,157,164,162,90,76,99,61,99,118,63,10,2,7,34,31,44,51,79,129,123,75,65,35,38,36,27,17,35,68,70,61,51,38,54,63,36,18,19,30,34,61,50,71,83,80,103,85,101,125,130,122,114,119,120,121,84,20,24,23,17,17,17,11,7,6,9,16,19,10,8,47,73,46,31,29,63
111,108,95,95,120,136,160,160,147,142,108,141,150,158,148,124,131,123,103,60,95,147,137,135,130,134,120,134,148,146,111,118,95,104,148,144,134,91,80,33,36,54,62,48,51,72,91,70,103,120,137,156,181,175,166,127,88,104,88,79,29,20,4,1,14,35,48,40,21,61,113,19,8,16,26,38,46,42,38,38,52,57,50,73,107,159,139,136,125,140,101,87,95,99,86,67,21,18,62,90,86,117,125,130,122,129,123,107,82,90,83,100,77,78,66,53,64,67,68,85,125,107,95,70,51,32,51,66,85,116,144,173,206,181,160,132,63,91,103,40,13,7,28,42,13,3,2,3,14,37,21,4,3,17,12,29,74,65,65,84,102,51,40,31,21,44,48,42,36,97,92,158,162,92,85,116,126,49,78,138,149,175,177,95,78,62,44,62,77,37,29,36,43,71,53,53,87,153,114,72,29,19,22,20,34,51,48,53,61,59,58,70,74,84,99,97,92,105,109,88,77,79,78,81,80,80,86,90,97,118,122,122,102,88,64,27,20,16,28,21,18,36,31,17,21,52,60,91,53,49,55,80,106,106,107,108
91,98,105,99,116,111,97,121,113,102,109,116,133,156,158,129,110,93,61,45,53,93,109,102,84,86,102,99,120,105,109,123,158,148,106,131,136,99,95,92,80,62,62,67,65,77,120,153,125,177,189,184,176,197,194,179,144,85,81,37,84,63,31,22,20,14,31,28,10,18,84,19,6,5,17,36,29,29,38,43,42,42,55,59,86,133,128,138,154,148,123,138,134,107,75,48,23,55,73,80,110,122,133,127,128,128,137,116,108,125,120,93,87,85,99,81,69,72,47,43,52,71,73,99,96,80,50,43,57,95,116,122,139,109,66,58,74,66,11,18,7,11,7,6,7,0,0,2,34,19,8,5,6,21,48,66,74,73,81,81,66,47,73,85,97,105,102,104,76,117,103,95,115,89,74,85,126,62,54,98,149,123,153,130,49,9,22,27,33,25,66,102,128,90,63,72,122,158,118,40,21,23,26,40,44,36,28,34,47,64,79,85,95,111,100,102,107,84,80,89,85,84,85,57,55,64,69,79,82,100,99,99,53,47,23,11,9,18,20,31,35,65,78,43,36,20,74,69,63,65,97,121,120,123,119,85
98,102,97,87,65,85,80,87,103,91,98,123,112,99,142,153,103,91,74,53,72,91,88,117,114,99,104,95,97,117,114,124,127,147,131,129,134,103,80,89,73,56,74,99,98,101,157,186,176,190,180,121,155,193,207,210,127,78,59,36,44,48,46,79,60,11,10,27,66,71,49,4,1,1,2,3,5,10,16,17,19,34,53,58,51,98,116,140,144,138,116,142,141,134,137,84,77,60,55,89,104,108,124,137,140,138,130,111,104,52,76,68,67,62,59,62,43,22,27,43,30,40,54,73,80,59,66,91,96,63,71,60,45,28,76,27,16,15,38,37,9,9,2,1,2,1,0,11,11,2,9,36,50,63,68,75,81,83,68,73,73,106,93,131,130,131,119,100,110,120,85,98,73,36,21,23,54,93,102,113,114,113,171,154,64,56,31,29,59,115,144,157,161,123,91,128,176,181,156,51,20,22,24,31,39,65,103,67,70,75,84,69,75,89,87,90,87,74,74,48,40,65,88,46,54,38,41,44,43,42,62,63,50,12,8,8,22,66,60,28,10,26,38,34,47,68,116,105,114,130,136,130,115,120,111,101
84,83,62,99,72,62,96,109,82,83,100,96,88,130,135,141,123,113,127,135,108,106,85,69,125,155,136,134,100,98,109,99,80,144,144,154,125,95,45,41,43,46,57,67,93,107,178,190,192,196,136,108,111,133,147,186,171,81,48,22,15,17,16,32,36,32,24,40,40,46,31,23,15,12,7,8,16,21,33,30,31,43,60,58,41,49,103,123,136,84,90,125,142,128,59,82,114,104,100,73,73,74,125,145,139,134,98,77,77,88,55,45,47,46,27,20,18,39,47,49,38,30,32,61,110,137,112,46,37,52,67,24,38,8,34,10,23,20,10,5,3,1,1,3,8,8,5,6,1,8,55,77,79,101,129,122,135,100,70,77,33,30,77,134,163,149,95,51,25,52,81,79,29,20,16,18,5,13,27,132,186,153,151,136,81,43,49,53,101,132,152,157,165,164,142,168,187,179,177,127,52,31,47,58,60,78,111,83,82,84,80,87,84,76,69,78,65,75,53,29,62,53,67,52,62,59,45,37,22,20,17,28,28,22,12,16,41,103,99,25,15,26,31,66,112,132,123,137,115,109,83,89,109,106,92,101
108,130,138,113,65,65,60,112,132,76,88,94,110,101,107,112,133,103,80,77,91,93,94,94,124,162,155,120,138,87,110,104,97,93,96,142,125,73,59,52,84,151,120,113,142,160,188,194,191,194,187,153,126,78,42,51,153,69,39,37,31,27,21,60,60,51,65,73,80,72,52,38,35,30,36,36,36,32,40,53,49,72,54,57,29,38,31,122,150,148,176,154,162,102,12,23,102,99,82,50,67,104,126,128,138,87,73,71,66,70,51,41,28,26,31,38,20,31,38,27,51,49,63,99,84,89,83,25,50,47,42,43,23,5,17,12,32,33,65,42,22,2,17,3,18,27,5,1,15,72,126,141,170,170,138,109,100,102,123,135,114,52,57,84,106,108,85,45,15,7,21,13,10,5,3,1,2,5,27,160,120,53,40,63,47,30,51,40,54,91,133,122,137,146,169,180,178,146,155,127,74,33,47,55,81,103,129,107,78,69,82,110,127,111,61,21,24,23,13,7,30,19,18,14,21,27,30,34,5,5,7,9,6,23,16,16,74,94,99,54,16,59,111,106,149,145,131,121,102,98,101,115,142,111,117,110
138,140,160,126,78,103,112,90,125,127,137,144,127,106,106,102,101,97,88,96,91,84,74,65,107,159,175,157,133,119,66,53,99,63,94,76,109,112,92,90,119,136,155,165,166,172,187,186,183,174,168,130,64,9,17,29,69,106,28,27,44,23,22,32,41,42,63,63,94,57,35,19,32,33,28,27,27,28,49,103,99,60,51,62,69,66,79,134,141,156,148,138,50,19,25,24,67,131,43,30,86,148,157,152,124,60,69,33,18,15,12,14,25,65,119,121,101,61,16,32,68,126,148,106,33,18,10,32,75,77,25,10,4,14,23,10,42,65,69,87,32,5,23,27,28,26,3,13,65,136,158,138,111,71,46,25,87,83,72,54,38,41,105,64,70,60,68,50,6,4,5,7,9,3,2,1,1,2,31,51,16,5,9,5,13,25,40,45,60,109,149,163,157,155,150,154,124,86,57,53,84,37,33,29,32,64,92,69,80,87,85,121,154,128,99,74,39,42,25,7,7,21,59,31,23,20,25,17,14,7,11,8,6,6,41,39,66,92,90,61,48,20,64,135,151,125,121,130,116,95,104,86,128,118,117,109
167,143,142,139,102,66,81,82,134,115,141,128,97,102,108,85,64,71,51,60,85,74,85,106,105,147,163,148,145,107,83,56,57,39,53,73,54,103,111,89,72,71,83,134,132,136,119,130,104,99,80,22,6,18,13,11,32,123,29,16,40,29,35,24,34,23,19,33,63,56,39,25,66,74,34,19,16,16,25,51,96,93,73,69,63,57,56,37,51,61,52,11,16,17,17,12,5,9,6,44,141,150,161,170,178,162,124,116,77,39,26,22,42,88,136,138,93,30,18,98,132,87,77,22,7,17,14,45,42,26,28,8,4,19,45,47,64,68,100,18,24,3,31,39,31,17,18,45,88,94,75,50,33,29,19,13,33,53,28,39,14,32,41,21,29,35,46,30,11,5,0,2,5,3,3,2,1,0,1,2,3,1,8,7,8,25,11,40,102,135,147,150,125,115,84,67,68,47,43,56,60,69,37,27,31,39,72,87,87,95,94,116,179,132,126,98,91,76,57,30,35,55,47,56,33,10,7,7,94,20,4,28,36,14,47,64,50,72,71,77,61,91,110,117,153,121,100,101,124,130,132,134,100,98,112,112
104,128,123,129,104,67,89,83,147,111,119,150,124,108,94,104,71,60,46,44,39,41,37,61,111,151,151,141,119,63,65,46,25,34,60,70,30,46,92,88,92,82,86,73,87,84,81,33,20,6,7,6,15,8,10,22,28,126,84,6,35,50,23,6,4,15,30,19,27,90,86,68,60,49,59,44,15,5,9,18,20,18,21,36,28,12,9,24,35,6,2,4,4,4,3,2,1,3,37,119,146,142,164,136,117,111,127,142,119,71,81,93,81,106,118,104,38,21,62,55,62,54,7,8,3,2,5,11,8,8,4,3,14,49,88,93,77,35,6,2,8,29,40,45,47,72,98,106,82,53,44,53,30,10,3,2,7,63,75,139,34,24,15,23,26,28,16,21,16,3,0,0,1,3,3,2,2,2,1,1,1,3,6,6,19,5,45,60,91,106,87,80,60,21,13,22,59,57,19,10,10,11,10,16,16,44,90,96,92,88,92,89,115,157,164,171,117,103,116,130,134,137,129,111,79,11,4,25,102,11,7,30,56,31,21,61,75,79,40,63,85,107,107,141,141,117,103,118,137,131,127,131,121,88,84,100
115,120,124,121,58,82,55,131,132,134,135,163,107,54,85,68,44,46,65,67,79,78,56,56,62,107,112,81,95,53,53,66,58,47,67,86,63,76,114,122,54,84,50,45,64,86,85,64,58,20,7,6,10,15,23,3,4,84,115,8,10,93,131,92,43,14,25,111,180,165,122,108,109,75,71,52,33,6,13,17,32,44,9,0,0,0,7,23,27,3,1,0,0,0,0,0,4,62,93,127,146,116,111,88,87,68,97,88,75,62,59,73,64,86,71,40,18,86,86,83,39,15,51,11,5,17,13,2,2,14,23,36,45,61,70,71,81,24,6,4,7,19,18,20,94,121,66,64,58,29,51,139,55,9,1,7,25,179,93,21,3,4,9,49,41,25,14,7,4,1,0,0,1,3,4,1,1,1,1,0,1,2,3,9,32,58,74,41,63,84,84,71,41,14,8,14,58,55,97,41,8,6,5,23,52,76,74,87,70,83,69,64,70,114,139,179,144,165,179,189,197,191,193,183,134,44,38,86,73,23,67,66,106,70,48,90,101,94,51,68,72,81,73,73,109,117,118,116,109,103,113,105,107,104,102,103
130,113,97,60,66,56,84,121,139,159,127,92,65,52,53,51,41,29,29,26,9,36,82,74,63,96,101,65,75,70,78,77,77,64,64,63,52,91,141,137,136,71,33,45,61,70,66,70,46,56,20,11,20,12,8,1,0,91,112,2,7,50,135,100,109,95,65,150,158,176,159,87,49,43,28,60,39,34,29,45,73,59,7,2,13,17,3,3,1,16,11,0,0,1,7,17,72,122,170,172,96,33,78,53,44,86,82,80,59,58,47,62,74,76,23,37,80,107,113,38,40,55,58,94,79,17,6,12,7,17,42,43,41,46,46,47,40,20,20,8,3,12,7,9,63,104,67,50,29,28,25,46,10,6,3,7,59,54,12,4,0,3,10,17,18,10,6,2,1,0,0,0,1,5,4,5,6,2,2,3,7,8,14,27,70,97,95,80,121,139,173,119,59,51,28,10,15,42,66,81,69,7,8,23,40,44,59,66,59,51,58,43,54,118,121,152,154,162,172,176,184,188,190,181,176,140,96,62,36,40,100,117,132,124,74,85,134,134,89,85,110,100,109,160,150,177,170,178,181,183,182,180,173,162,149,121
120,83,30,38,43,45,100,120,145,134,126,78,56,56,42,40,15,34,26,19,26,10,36,55,69,103,100,82,109,100,80,82,78,73,66,57,70,90,132,148,149,93,121,138,161,127,146,71,23,20,8,10,4,1,0,0,1,55,31,1,7,3,40,131,176,150,50,77,71,128,141,119,78,33,3,4,3,29,60,30,41,63,68,35,46,44,41,1,2,8,3,0,4,46,104,107,98,149,163,123,13,12,32,11,65,60,57,64,47,69,95,86,62,21,65,94,80,107,75,75,83,12,10,31,19,0,0,15,10,16,22,17,29,62,18,24,22,9,10,10,8,4,10,18,74,86,79,43,23,12,4,17,9,5,3,15,47,70,27,1,0,4,8,15,6,9,4,2,1,0,0,0,0,4,3,4,5,7,15,50,27,35,21,54,99,121,96,108,175,186,162,84,49,59,71,31,32,86,80,25,20,10,9,14,17,22,50,35,57,79,78,74,46,34,46,74,95,130,156,148,111,159,197,191,189,189,162,58,37,97,66,69,112,97,104,54,117,110,64,114,121,148,136,161,169,191,170,193,195,193,174,177,169,167,167,146
124,93,35,45,21,17,87,112,93,105,93,28,28,33,9,1,25,21,11,42,57,54,32,18,38,87,119,92,114,148,143,136,124,100,94,117,122,119,166,179,176,167,123,110,57,32,13,11,5,3,4,3,3,1,0,1,1,2,1,8,4,1,4,50,104,143,53,59,77,66,66,50,34,33,34,27,21,27,17,25,11,11,14,4,8,34,23,4,7,11,3,1,6,6,84,103,121,163,58,11,0,1,1,11,32,44,62,48,69,68,41,21,20,80,118,57,87,32,81,48,7,7,13,12,50,10,1,17,7,4,10,9,20,20,7,15,22,5,2,2,9,13,15,9,26,41,59,37,12,4,5,8,18,10,3,48,44,37,20,3,2,10,5,2,3,2,1,0,0,0,0,1,2,3,7,7,6,9,30,48,73,60,77,102,168,152,127,173,185,171,133,54,25,17,45,69,17,20,37,32,33,14,10,5,4,14,17,18,37,62,58,39,30,33,64,53,55,81,124,108,77,142,189,192,203,183,154,100,58,35,18,5,49,73,71,54,113,129,120,105,111,91,102,123,147,173,183,186,173,165,175,165,162,177,164,141
116,36,33,36,40,36,66,111,99,69,50,10,12,4,2,6,12,47,10,32,66,86,82,53,24,46,75,107,122,108,128,136,121,101,111,119,136,146,160,121,111,117,81,57,18,6,1,0,3,6,7,12,9,3,1,1,4,3,22,9,53,15,1,28,48,60,67,55,74,39,3,61,74,60,50,37,43,12,1,1,0,0,0,0,12,10,2,16,24,5,6,7,3,16,125,98,150,53,15,0,1,1,1,2,26,71,64,76,20,1,4,17,49,122,69,70,113,50,58,6,29,2,11,17,16,5,6,13,15,15,5,1,3,1,2,3,6,16,1,1,3,12,19,20,39,32,35,37,5,8,4,6,0,5,15,23,12,19,16,2,2,6,10,2,1,0,2,11,19,12,17,17,41,8,5,2,8,12,43,62,103,106,123,162,183,159,158,157,122,77,37,20,12,14,22,10,22,17,5,20,8,22,37,7,4,2,1,2,5,10,20,19,36,41,65,50,34,48,77,78,68,143,198,206,192,150,136,95,48,30,18,44,73,99,127,107,108,127,96,83,79,55,62,94,66,128,172,188,195,175,156,98,102,151,168,144
34,21,52,52,36,41,70,118,85,12,14,3,18,14,5,5,42,33,15,41,84,80,111,97,73,58,38,27,53,104,132,122,107,105,123,126,142,117,74,68,57,14,10,24,3,0,0,0,1,2,9,22,25,26,21,2,7,8,8,2,6,6,2,8,29,28,50,67,61,26,66,166,174,126,87,60,29,21,4,1,3,4,2,2,7,22,36,19,31,20,26,29,9,63,136,139,68,11,2,1,0,5,2,17,79,96,64,9,70,71,54,47,86,93,38,82,72,36,25,71,14,0,2,5,7,7,5,5,16,9,1,2,5,1,2,0,2,7,5,3,1,2,6,11,14,13,15,22,14,7,30,16,9,46,126,82,28,46,37,4,4,5,2,1,0,0,1,4,16,3,13,21,23,8,4,5,8,11,33,60,68,94,120,178,179,170,158,130,54,17,10,4,2,2,3,3,1,2,2,4,11,10,3,4,2,7,7,5,5,7,21,14,6,16,50,38,53,54,45,42,84,104,148,169,148,139,118,102,39,30,19,56,60,100,142,127,134,131,145,155,170,167,166,127,69,131,182,202,193,166,129,71,58,92,94,58
17,21,33,52,51,106,125,103,35,5,2,5,16,1,11,11,18,16,37,43,55,78,98,107,115,129,146,95,41,30,35,60,92,92,73,114,77,71,56,2,0,0,3,1,0,1,3,0,0,0,4,14,32,18,3,1,0,0,0,1,12,11,22,18,19,28,64,48,100,168,156,163,199,164,128,60,49,54,21,8,3,6,18,46,88,52,46,33,100,21,17,5,54,128,122,61,17,0,1,3,3,3,18,54,57,21,33,71,94,50,35,85,107,101,95,89,99,69,28,85,8,3,3,7,9,12,7,5,6,7,9,6,0,1,5,0,0,0,1,3,3,2,11,16,7,2,3,6,5,9,12,16,13,31,45,23,23,11,26,17,11,4,0,0,0,0,0,0,1,0,9,2,1,4,5,6,8,25,76,101,106,97,93,180,177,147,131,93,67,42,11,6,4,8,5,3,2,1,3,3,9,15,4,1,3,4,5,13,12,13,42,60,67,52,62,68,64,60,40,23,67,94,59,96,82,90,101,106,81,45,16,11,26,62,33,50,118,203,210,213,214,213,212,178,87,119,173,167,153,147,65,41,64,63,46,20
18,12,28,49,86,123,121,69,20,10,4,9,18,10,20,31,9,23,58,16,14,49,70,88,115,143,141,155,155,101,62,63,78,57,68,111,111,98,58,2,1,0,0,0,1,2,1,1,0,1,1,17,20,9,3,6,8,8,5,3,17,22,30,28,37,48,73,86,131,173,213,212,202,202,200,191,157,140,84,59,51,30,50,93,92,96,15,17,33,73,47,39,141,133,59,12,4,2,2,1,3,13,43,50,22,55,80,61,100,60,49,82,80,83,74,110,97,81,30,58,43,11,5,8,19,12,10,12,14,14,20,15,6,2,2,0,0,0,0,3,4,2,1,8,6,2,0,2,4,5,7,8,7,7,8,6,8,16,52,24,9,3,1,0,0,0,0,0,0,1,0,0,0,2,2,5,17,76,129,108,59,143,165,191,187,99,20,8,14,14,8,8,6,10,40,18,4,4,6,12,6,5,1,2,4,4,11,23,24,46,83,93,91,60,67,72,62,89,106,92,114,111,56,12,8,14,32,90,105,27,31,13,41,36,30,69,165,205,205,213,221,219,185,155,155,157,166,159,109,90,20,35,66,38,29,25
17,23,19,44,90,114,103,26,18,11,9,7,20,25,15,8,17,38,19,5,11,22,74,84,108,127,135,144,122,75,80,94,99,106,110,102,83,54,25,4,41,8,0,1,0,1,4,2,1,4,3,15,22,28,7,11,4,4,9,10,24,17,31,63,64,63,76,104,167,196,193,186,211,214,211,203,169,162,151,99,29,39,19,26,1,5,16,49,47,71,99,89,72,17,6,3,1,2,9,3,3,9,37,25,19,87,73,29,19,26,49,35,43,40,53,78,77,30,65,69,69,34,14,17,35,17,26,47,32,19,48,16,9,5,3,2,1,2,3,2,5,2,1,8,5,1,0,1,2,3,2,3,13,35,9,5,6,10,41,30,12,3,6,2,0,0,1,0,0,1,0,0,0,0,1,3,15,16,57,69,107,174,171,155,189,99,30,29,20,21,24,25,50,48,33,8,6,10,16,18,28,12,3,3,7,14,35,82,126,138,139,127,92,109,79,79,169,177,197,181,56,35,2,0,2,12,26,97,81,75,40,22,37,61,85,101,167,207,190,182,177,170,94,51,79,104,96,95,35,8,4,41,41,14,15,21
28,42,58,63,130,154,84,39,18,18,12,20,5,22,22,25,21,66,16,2,11,53,91,111,117,131,124,118,109,112,102,116,108,78,68,95,92,59,40,11,40,64,4,0,0,1,1,2,3,3,6,19,21,11,10,5,9,10,11,48,54,34,45,102,107,136,129,173,222,179,164,171,173,176,164,189,179,155,80,53,121,157,122,146,105,117,153,159,106,116,89,19,9,3,7,3,4,12,12,24,49,20,37,48,75,51,33,24,20,19,21,57,47,64,69,64,23,53,76,86,60,60,35,43,40,90,80,130,87,35,17,11,9,5,3,4,1,0,2,4,3,2,0,0,0,0,0,2,1,2,4,3,11,29,3,0,1,1,10,10,6,1,0,0,0,0,0,0,1,0,0,0,0,0,0,3,10,15,34,110,145,178,164,147,133,115,45,40,54,61,46,62,78,70,26,9,9,13,22,13,20,12,28,49,26,80,144,180,179,174,178,169,116,113,153,194,191,142,86,61,17,6,11,27,25,85,37,73,56,55,18,31,58,73,57,59,90,147,150,150,124,94,46,32,49,41,26,32,7,1,0,26,28,26,41,26
40,17,27,55,52,43,45,36,41,11,10,24,11,13,29,22,43,69,24,12,26,58,88,91,121,124,128,128,114,112,127,105,83,77,101,95,86,78,47,20,39,74,73,30,2,1,7,6,17,30,38,10,4,3,8,9,17,21,24,95,47,52,95,89,130,137,132,125,106,92,99,97,97,76,89,101,103,102,41,102,79,181,141,96,144,146,135,118,96,35,8,6,4,2,2,1,9,17,15,40,48,38,27,47,51,35,13,11,7,13,9,12,31,43,5,28,42,24,65,34,31,49,60,41,116,117,110,113,91,82,36,17,6,2,3,3,0,0,2,4,3,1,0,1,0,0,0,0,0,2,1,10,7,13,0,0,1,0,1,1,4,0,0,0,0,0,1,2,2,1,1,0,0,0,1,3,3,10,26,80,125,173,173,173,100,88,71,75,52,57,55,59,92,111,61,20,10,8,9,7,7,17,44,118,170,201,216,188,193,197,187,104,78,121,151,113,61,29,56,48,15,33,38,39,74,88,79,27,38,50,24,50,68,32,32,26,27,41,98,130,82,30,11,6,14,27,36,32,0,0,0,0,4,12,32,49
13,15,10,3,9,13,30,41,25,12,14,22,33,30,35,27,39,53,30,12,23,55,74,74,113,110,126,117,79,99,95,98,114,116,116,95,86,86,80,72,80,121,147,120,39,26,36,55,129,144,60,74,10,7,7,9,26,37,59,105,32,53,52,90,132,103,59,47,35,41,20,39,29,24,58,50,65,77,38,32,39,104,89,74,64,74,42,63,35,4,5,5,4,1,5,7,25,22,29,43,22,13,28,36,29,41,6,9,9,13,12,12,7,9,6,23,23,20,47,36,44,76,42,62,111,139,37,100,85,46,42,41,11,0,1,1,0,0,1,4,4,0,0,2,1,0,0,0,0,10,11,2,2,1,3,0,0,0,0,0,1,2,1,1,0,0,1,5,7,1,2,1,1,1,1,3,8,43,87,64,77,149,179,133,46,27,36,65,57,52,62,60,92,115,102,81,52,21,22,37,46,86,73,163,205,223,205,203,170,125,88,53,41,74,45,52,29,11,38,55,23,62,81,15,51,125,39,10,39,25,24,47,65,59,54,26,34,42,51,41,23,21,4,11,17,12,31,5,1,3,2,3,2,7,14,20
10,13,13,8,10,10,22,33,5,6,16,7,91,38,34,36,41,44,31,23,22,32,44,80,93,105,124,126,82,74,83,103,117,114,101,78,82,87,63,56,61,88,131,134,122,100,144,162,158,128,44,28,17,10,13,10,10,17,21,15,22,45,84,76,67,57,73,41,39,26,13,12,91,130,121,126,106,99,69,93,138,51,37,14,24,32,42,12,4,3,3,6,2,4,5,13,41,11,9,14,19,71,19,8,6,10,40,28,9,10,15,17,15,15,9,21,8,15,7,6,31,20,25,81,123,106,40,68,29,62,15,2,0,0,0,0,0,0,0,1,2,0,0,0,0,0,0,0,0,2,2,1,1,2,5,2,0,0,0,0,0,0,4,4,0,0,0,2,5,3,3,8,2,7,2,4,19,40,110,71,49,127,168,115,36,21,17,39,50,45,52,73,91,64,113,140,170,139,140,155,133,154,158,182,186,168,119,101,50,46,53,32,36,49,19,11,14,10,70,33,19,34,40,8,7,7,14,12,23,13,7,30,50,60,43,30,26,29,58,29,26,10,1,12,8,31,9,1,1,2,7,10,2,13,14,10
14,11,8,8,9,5,18,14,8,44,40,15,106,47,45,23,29,50,57,49,25,31,40,64,62,77,111,123,125,86,60,45,55,82,78,63,80,90,100,94,87,107,121,118,110,159,189,78,91,105,47,49,27,15,18,11,8,7,7,30,60,86,86,53,30,36,39,25,17,19,5,5,20,38,55,86,80,34,38,65,49,15,11,5,9,10,10,5,3,2,4,9,6,6,9,23,16,7,19,31,22,19,11,13,8,9,11,25,8,4,13,17,25,29,16,4,3,4,9,1,3,9,42,90,99,38,83,32,66,39,1,0,0,0,0,0,0,0,0,0,0,0,0,0,0,0,0,0,0,0,1,1,0,1,1,3,1,0,0,0,0,0,2,0,0,0,0,1,4,2,6,29,23,7,11,15,12,27,78,23,23,65,91,89,91,99,93,65,69,65,75,96,93,88,128,154,183,144,150,106,155,189,157,152,105,110,61,27,29,28,63,38,34,17,12,3,10,10,62,17,7,9,10,6,12,10,12,13,17,48,36,25,28,28,23,22,33,49,27,22,8,6,4,14,27,22,7,3,4,12,10,8,7,18,19,11
14,8,11,7,10,9,15,27,70,33,13,39,143,49,67,53,34,36,49,65,59,40,58,67,63,65,79,90,97,84,87,73,75,87,95,95,91,98,98,76,95,85,64,33,32,118,125,42,53,51,17,23,18,11,14,18,12,11,15,45,34,15,15,7,6,4,2,6,10,10,5,7,9,10,16,34,23,19,24,17,8,2,3,3,6,10,8,7,4,6,9,2,10,8,30,36,16,9,17,25,24,17,9,10,5,6,7,27,26,14,18,24,31,11,3,6,30,20,15,7,2,4,41,81,31,36,14,1,6,2,0,0,0,0,0,0,0,1,2,1,1,0,0,0,0,1,1,0,1,0,0,3,3,1,1,1,0,0,0,0,0,0,1,0,0,0,0,1,3,18,2,12,38,10,53,17,18,16,20,33,48,61,75,77,108,169,156,113,107,70,65,115,106,98,148,172,182,156,98,120,161,179,171,92,112,84,41,18,24,28,24,21,21,4,5,5,8,16,16,17,44,10,5,5,5,16,12,12,4,14,10,15,33,28,43,35,38,18,21,11,7,2,8,11,13,34,18,10,4,7,8,10,9,17,26,12
13,11,9,14,10,8,13,14,21,28,20,25,104,70,42,38,45,33,29,35,57,65,97,106,121,103,111,114,95,102,96,85,97,110,99,94,104,100,102,86,74,94,123,59,42,110,111,67,7,23,5,10,10,9,26,25,15,10,10,14,12,9,4,5,4,3,3,7,8,5,23,17,11,11,16,12,11,8,7,7,3,4,1,3,10,9,5,8,10,4,9,6,19,27,28,15,27,32,23,15,11,5,10,8,5,8,9,13,8,13,12,8,10,14,11,11,10,7,3,1,1,2,57,49,33,8,4,8,1,5,1,2,2,1,0,0,0,1,3,3,3,1,0,2,0,1,0,1,0,0,0,1,0,0,2,1,1,4,4,1,0,0,1,1,1,1,0,0,2,2,3,5,10,22,8,20,11,16,39,74,127,111,84,87,117,168,202,187,139,145,152,151,169,166,172,179,174,160,105,127,143,111,135,92,110,63,56,16,22,25,36,41,14,14,10,10,17,15,17,19,17,27,16,12,6,8,7,5,0,10,38,37,18,31,32,19,19,10,7,9,11,5,11,12,19,45,17,32,14,10,7,8,17,15,19,10
13,11,24,12,12,14,13,3,12,40,101,143,69,51,16,19,31,31,32,36,50,41,54,68,113,95,79,88,119,136,126,117,78,104,103,123,118,91,69,101,86,81,71,96,34,15,2,15,9,4,4,6,3,6,25,31,14,17,19,16,11,6,7,4,6,5,4,5,4,7,26,6,6,7,7,6,7,7,7,3,2,4,4,3,8,7,4,10,6,10,8,5,39,26,27,7,35,21,8,10,7,5,9,6,10,14,12,22,32,22,25,49,43,27,33,22,21,10,0,1,3,14,15,2,1,2,0,0,1,3,10,11,7,7,0,1,5,4,1,2,4,1,1,0,2,1,1,0,3,0,0,0,1,0,3,3,3,5,5,2,1,1,0,2,3,3,2,1,0,0,3,4,10,11,22,43,21,53,91,127,183,179,132,129,160,171,160,167,162,147,125,159,193,208,175,163,149,114,106,109,86,112,125,129,150,78,73,24,18,26,52,21,7,10,22,35,33,47,46,63,32,6,11,8,16,32,16,10,3,13,11,12,19,28,16,23,31,5,6,6,4,7,8,11,26,23,9,26,14,17,9,7,18,18,10,4
10,10,20,15,11,10,8,3,8,20,57,62,70,27,8,8,20,15,18,17,26,30,37,49,64,42,45,38,59,111,122,121,113,129,142,129,109,74,63,82,81,108,99,114,130,42,17,19,3,4,2,12,16,20,38,40,32,19,14,11,13,10,10,8,12,4,4,3,5,14,8,4,13,4,5,4,6,9,9,7,6,7,6,6,5,5,9,10,10,10,13,8,20,20,12,12,19,12,21,8,2,4,6,28,57,44,23,25,31,28,29,39,31,23,17,19,13,2,3,9,7,6,11,0,1,0,0,0,1,9,5,2,2,0,0,6,2,0,1,2,2,1,0,0,1,1,0,1,1,1,0,0,1,0,0,0,2,8,5,4,1,3,1,0,2,2,2,2,1,0,4,8,11,23,45,74,76,81,101,146,148,131,148,136,123,158,153,117,140,175,160,174,196,204,122,94,151,124,140,145,113,113,119,133,119,91,100,34,28,37,50,22,11,54,87,67,44,30,33,10,78,25,10,8,45,95,43,12,7,7,10,12,46,65,29,32,29,7,14,5,15,9,8,17,17,57,55,26,16,30,13,10,15,17,12,8
8,5,13,16,28,24,7,4,5,5,9,39,45,49,17,9,15,19,17,27,26,39,10,41,37,38,31,28,32,44,82,103,128,137,120,87,73,43,34,51,41,62,99,90,95,79,21,6,3,4,2,4,16,28,49,19,29,89,15,19,17,29,15,15,37,6,4,3,4,7,11,7,7,8,5,9,6,13,9,14,4,18,10,4,5,7,12,10,10,15,16,57,42,22,49,74,43,26,10,11,4,2,9,99,63,36,30,32,30,28,30,29,25,24,23,15,2,1,3,15,5,3,3,0,0,0,0,0,0,0,0,0,1,0,0,2,1,0,1,0,0,4,3,3,2,2,3,3,2,3,1,0,0,0,0,0,0,4,6,9,36,3,0,0,0,1,3,1,1,1,7,12,20,18,28,38,51,78,88,112,138,112,108,145,88,94,116,143,111,159,186,162,134,135,88,55,168,181,166,136,151,133,113,129,89,54,85,52,25,22,42,19,21,93,145,134,86,30,15,12,63,58,31,8,47,137,76,7,5,3,3,14,74,139,90,82,79,59,28,6,10,19,21,15,31,155,120,83,61,40,4,15,25,18,9,9
13,14,14,14,23,28,23,10,5,4,8,32,32,13,13,21,20,27,19,22,15,22,17,48,40,31,27,26,23,27,33,52,117,128,118,100,64,27,15,35,52,34,64,22,62,76,32,8,5,13,5,4,7,8,8,22,41,32,36,13,74,37,5,12,9,27,13,1,2,11,18,24,23,13,9,15,17,23,13,18,15,16,6,4,5,6,8,7,11,14,19,38,17,31,20,35,12,31,3,11,4,2,18,109,74,27,29,28,30,28,27,39,36,27,44,43,1,5,0,33,11,0,0,0,0,1,0,0,0,1,3,1,0,0,0,0,3,2,2,2,2,3,2,1,0,2,1,1,0,0,0,0,2,0,0,4,4,3,6,14,15,0,1,5,3,0,0,2,3,2,6,15,51,71,73,45,50,67,103,114,119,101,91,87,57,64,52,74,81,95,87,71,56,48,65,89,122,179,158,158,158,155,94,100,97,49,41,48,13,6,8,25,34,140,185,183,183,128,43,11,20,122,26,7,5,11,25,4,4,14,19,113,156,131,112,127,54,54,69,15,13,17,18,19,106,121,74,185,115,40,6,12,16,12,10,8
18,20,18,11,21,18,21,29,18,7,14,31,36,3,7,3,14,38,38,16,23,19,16,7,35,23,20,16,16,18,45,116,116,89,57,54,28,22,10,13,28,33,61,15,18,31,13,4,7,9,17,4,5,11,11,13,5,24,26,19,11,28,7,21,32,82,33,19,10,13,13,10,18,20,16,19,17,21,27,17,11,16,20,12,16,16,20,17,14,12,19,42,17,27,32,45,16,6,4,5,5,15,79,109,103,75,64,39,48,32,28,66,36,19,9,6,2,2,5,28,6,0,0,0,0,0,0,0,0,0,1,0,2,6,0,0,0,4,4,5,3,3,1,0,0,0,1,0,0,1,0,1,0,1,0,1,2,4,9,10,2,3,8,51,52,6,6,2,8,6,5,14,70,102,103,81,83,52,109,103,62,109,76,76,52,68,76,76,54,43,18,12,17,34,85,74,80,102,114,165,166,177,89,45,10,8,14,9,5,3,13,56,91,168,198,203,188,148,93,32,7,97,52,7,9,6,8,7,11,16,33,75,128,174,150,154,36,36,45,20,11,12,12,10,20,19,47,103,88,29,8,14,21,17,10,20
22,11,27,16,18,18,19,23,17,13,6,20,14,2,7,6,10,34,11,20,32,25,33,21,16,28,15,14,18,18,49,104,77,39,42,24,31,10,7,13,12,19,50,21,17,18,11,31,8,6,8,3,4,6,13,18,14,30,14,23,50,29,25,47,122,161,104,31,45,38,13,12,16,22,28,11,9,34,44,15,31,60,53,138,144,58,23,12,12,28,56,52,29,49,57,52,29,11,7,6,14,48,57,40,35,49,48,53,51,31,33,26,29,34,2,0,1,1,1,3,4,0,0,0,0,0,0,0,0,0,0,0,0,2,0,0,0,0,1,2,2,4,0,0,1,1,3,0,2,0,1,4,7,0,3,3,4,19,38,17,4,5,15,43,56,20,0,4,23,10,7,9,18,29,54,50,62,66,146,144,125,104,96,123,117,153,120,78,53,14,10,12,24,30,92,76,49,46,64,154,140,148,78,11,3,10,8,9,7,6,11,37,130,194,197,195,159,99,43,21,26,22,71,23,12,9,10,6,9,21,37,65,133,114,95,193,76,52,76,82,29,20,22,17,11,12,26,74,62,31,17,18,17,11,6,11
20,20,29,27,17,7,9,15,5,4,9,7,17,5,3,2,22,9,7,9,14,16,19,16,5,13,15,20,15,16,16,53,60,30,45,36,25,14,4,7,12,22,16,18,10,25,34,18,9,45,50,3,7,4,4,5,7,15,17,52,93,96,63,98,185,184,182,124,55,13,9,7,12,42,23,4,5,8,9,7,52,55,126,149,128,115,48,28,23,22,20,29,21,24,19,29,14,11,9,21,71,41,40,48,14,39,41,40,31,26,32,25,21,19,24,7,1,2,1,1,1,0,0,0,0,0,0,2,2,14,17,2,0,2,2,0,0,1,0,5,5,2,1,1,0,0,0,1,1,0,1,2,13,2,18,16,27,48,116,50,12,3,5,3,10,1,29,18,7,11,13,15,29,43,54,60,69,95,163,143,136,122,104,119,119,130,102,31,14,13,14,11,25,25,115,89,52,57,46,55,42,66,105,65,7,7,9,14,10,6,26,66,120,167,139,105,45,22,9,10,22,46,76,51,32,21,24,26,35,44,31,50,91,108,77,166,139,92,98,57,48,37,37,39,36,30,71,48,43,36,13,14,18,8,4,15
12,13,16,21,18,6,5,4,4,5,6,2,3,8,6,20,22,2,20,16,10,29,25,27,26,15,8,21,9,6,6,11,17,20,13,13,0,12,18,5,21,12,11,7,8,39,19,7,6,27,53,38,9,10,10,7,5,13,37,48,36,37,63,127,152,94,92,99,102,26,11,12,4,10,7,19,20,23,29,22,44,79,97,85,124,81,83,38,19,20,37,22,17,17,33,19,14,8,10,37,92,32,24,52,63,48,51,41,25,24,21,31,9,40,22,3,7,8,16,21,9,9,10,8,6,7,7,17,22,79,91,22,3,10,13,1,2,2,11,19,21,12,7,9,2,1,0,1,0,1,0,2,13,30,86,69,22,80,37,21,20,15,6,5,6,22,34,11,10,9,16,19,23,32,48,78,106,113,161,134,154,131,100,93,39,14,17,13,17,14,14,10,14,27,68,44,12,31,44,34,41,42,66,76,32,6,9,10,4,13,45,117,142,123,26,12,12,7,18,28,40,123,186,165,112,62,90,119,80,57,24,40,44,73,61,88,128,114,141,160,78,41,55,59,83,69,47,28,28,31,19,22,32,8,6,9
12,11,21,9,11,13,5,7,9,12,6,6,3,4,2,1,6,6,31,8,20,18,18,12,7,40,3,5,24,21,16,14,6,12,7,2,14,8,4,28,53,48,19,12,5,20,22,10,9,14,23,22,8,14,6,5,3,6,53,85,32,23,32,61,73,76,100,137,174,95,32,22,20,28,27,20,28,27,32,10,27,87,106,131,136,113,96,75,55,34,30,21,36,20,18,17,33,13,2,27,69,31,28,26,35,24,37,20,31,22,46,27,23,16,12,6,23,15,31,71,45,19,16,20,50,73,46,40,130,129,123,79,57,41,17,1,2,15,57,82,79,75,81,49,27,45,34,31,2,0,2,28,59,86,143,125,122,89,48,32,23,15,7,14,14,15,11,10,6,5,15,16,22,25,30,51,96,131,151,96,112,146,130,97,45,3,8,16,25,19,11,8,16,21,98,119,84,91,96,49,51,46,46,95,88,12,11,11,16,29,95,178,162,139,36,13,5,9,24,20,26,68,127,118,90,60,79,64,48,42,21,35,45,124,61,33,56,125,157,168,69,67,81,72,52,25,42,35,35,13,16,20,17,7,6,8
6,14,13,30,31,15,40,120,82,33,7,6,6,3,2,5,13,13,6,6,27,25,4,8,10,32,20,17,30,32,29,12,4,12,7,10,16,16,69,28,26,139,101,25,8,5,59,45,17,9,2,32,26,38,23,5,5,8,20,10,8,14,6,2,7,11,63,102,108,60,58,32,25,35,25,18,21,25,28,30,11,37,112,143,133,64,75,138,119,107,45,25,24,30,23,17,13,30,10,23,46,46,18,45,22,23,29,69,47,31,49,28,40,26,26,15,35,27,49,84,63,31,25,30,155,130,125,152,184,174,153,90,78,42,17,9,32,51,149,163,125,50,50,103,118,126,95,62,22,7,18,64,118,163,176,143,76,55,60,102,133,29,12,11,17,30,15,15,5,9,16,23,31,28,34,37,93,128,104,45,80,152,147,95,28,3,8,17,31,24,11,6,11,28,87,102,81,107,89,35,57,37,41,37,54,24,13,10,31,102,185,176,175,158,118,94,19,15,23,18,22,35,36,57,105,82,38,45,23,26,28,14,27,100,50,28,43,67,95,58,31,39,34,27,39,54,46,64,82,22,15,13,7,6,10,10
25,33,35,16,19,53,45,131,208,113,13,8,6,4,4,21,79,30,12,25,29,43,50,39,20,13,12,18,13,11,18,23,12,15,21,11,93,78,43,22,16,13,25,69,71,9,21,22,10,3,3,8,19,45,16,8,14,15,6,0,2,14,27,1,5,5,21,60,61,32,26,16,20,29,18,11,34,30,64,30,36,49,61,130,126,141,53,28,38,20,17,21,29,26,34,37,21,16,32,50,53,58,24,14,40,35,23,22,20,32,25,39,23,44,16,25,27,29,42,39,23,17,30,87,121,181,193,207,203,195,165,125,99,35,25,49,55,44,109,128,92,32,32,57,112,130,68,87,83,51,110,144,169,182,194,177,59,82,138,174,136,72,43,6,6,15,41,15,8,11,16,22,17,31,46,37,69,107,107,68,87,153,126,53,11,5,10,13,27,19,18,11,31,47,98,109,104,94,62,9,31,63,30,41,44,16,10,15,35,101,129,108,93,149,163,169,75,29,16,15,15,16,15,58,109,107,104,39,20,70,109,69,26,16,34,72,135,88,76,49,43,46,57,55,53,34,62,200,171,138,94,56,44,29,10,8
43,35,20,23,18,15,14,31,141,172,107,49,30,23,16,44,23,27,53,65,69,66,55,44,23,6,4,10,8,7,10,37,63,81,82,28,19,33,67,39,14,16,11,42,57,39,55,22,10,4,4,18,44,16,37,10,16,14,10,11,18,18,7,36,25,11,28,84,82,83,77,39,49,38,48,53,55,37,66,59,54,55,49,34,38,19,14,20,26,46,12,13,19,12,13,51,40,28,12,28,41,57,28,17,35,18,43,29,20,24,32,34,22,20,14,16,22,15,34,34,24,22,32,28,56,157,192,208,201,167,115,127,139,81,67,69,76,82,92,69,61,64,39,39,64,67,30,39,86,144,130,177,159,163,188,163,127,33,97,154,114,94,66,23,4,4,4,3,8,9,15,19,18,16,34,39,74,89,106,89,126,155,97,13,5,5,20,35,49,16,18,21,41,61,130,120,97,150,62,31,44,137,50,45,31,16,17,40,55,63,70,64,77,141,153,151,57,13,14,8,7,4,5,53,115,105,106,40,24,111,161,144,86,22,45,62,201,179,54,31,37,44,45,40,55,32,45,148,90,157,114,100,124,55,44,39
31,16,3,11,29,28,38,16,15,65,97,40,32,16,26,39,85,74,72,107,76,95,80,61,47,42,33,26,12,12,12,6,13,13,35,39,16,13,49,39,13,19,39,28,14,35,22,22,13,22,21,22,28,3,9,39,34,27,18,3,6,11,10,30,108,31,28,129,133,108,93,70,50,54,37,78,74,70,70,68,60,46,54,35,46,52,16,17,14,28,35,59,22,18,10,5,10,37,68,78,121,120,102,84,70,26,21,59,11,23,15,27,14,12,14,18,15,38,73,97,77,63,52,54,27,41,93,122,162,134,129,116,108,124,127,107,89,55,56,80,89,68,58,39,40,63,43,35,57,108,128,121,122,174,194,173,117,115,152,154,157,96,37,14,3,5,2,0,3,13,22,13,4,5,8,20,99,122,127,163,124,113,61,23,6,18,30,82,64,71,58,80,87,92,143,132,106,121,65,16,9,13,17,20,22,24,28,48,57,61,56,65,69,130,100,129,64,25,19,13,7,4,11,54,129,111,55,31,26,84,75,150,77,24,27,32,165,87,35,27,26,47,26,36,55,29,42,61,30,101,161,100,93,80,111,86
40,19,38,56,34,24,9,7,17,70,61,31,58,37,52,101,195,161,174,185,168,122,47,97,145,172,154,98,40,31,33,20,11,10,29,63,64,43,84,52,32,27,64,30,48,42,31,51,47,36,9,11,5,3,20,74,85,96,21,8,1,1,0,3,34,16,5,13,42,30,10,28,101,63,35,29,106,95,89,40,80,45,70,56,22,33,36,58,19,9,31,31,11,12,5,10,14,31,161,153,158,192,189,175,116,102,88,22,35,45,15,18,27,17,24,21,36,74,68,135,165,160,126,157,143,92,99,120,140,169,192,162,97,118,119,82,49,84,60,69,65,92,76,51,54,94,70,40,23,36,47,52,90,108,136,148,105,135,94,144,113,57,8,4,9,2,1,2,7,10,18,3,5,15,29,37,124,106,59,112,123,70,56,50,45,36,27,50,60,82,90,66,68,96,120,145,132,103,42,52,27,9,10,37,33,59,45,52,55,58,76,102,98,144,188,134,63,31,15,10,13,9,16,47,67,63,13,23,19,67,14,133,83,13,13,16,68,21,18,12,12,17,45,14,34,35,12,8,36,41,90,78,30,33,41,27
43,44,32,43,23,10,37,37,31,150,171,135,130,157,116,168,203,189,193,183,171,112,64,22,64,30,8,31,28,29,47,36,45,56,74,82,101,97,47,89,102,100,66,17,99,124,129,99,51,53,48,38,57,15,63,85,108,102,42,22,15,28,81,26,15,4,8,15,18,36,50,45,62,98,40,47,89,75,104,79,80,82,98,92,25,8,32,38,35,46,72,38,10,10,11,9,40,93,147,143,165,198,184,146,154,108,104,59,40,36,22,39,44,41,60,74,90,80,61,145,161,151,123,163,150,135,163,174,147,131,157,160,123,137,135,118,82,72,74,50,63,109,87,61,90,114,64,46,49,83,90,82,66,70,156,163,161,109,92,118,39,22,6,11,5,1,6,7,11,19,17,12,16,60,52,85,111,98,82,86,89,119,65,71,79,61,23,46,41,29,39,30,48,36,68,138,144,129,52,42,21,23,12,25,33,27,23,37,41,57,59,148,164,159,150,91,106,66,10,16,10,15,26,42,25,21,72,28,32,13,13,49,15,30,56,38,23,19,13,8,33,36,101,50,19,10,7,13,26,51,38,34,37,26,13,54
29,54,55,49,44,15,36,63,47,108,142,175,155,188,213,214,192,181,170,146,173,176,75,23,12,8,6,3,13,18,12,7,15,16,24,29,63,70,37,48,100,90,16,66,74,77,41,14,8,16,46,46,70,81,90,99,99,101,86,66,116,101,78,80,98,81,95,87,79,39,75,68,84,66,28,108,83,54,106,88,91,91,71,42,33,53,52,43,43,44,37,23,16,8,42,47,105,59,42,71,95,84,107,187,153,143,146,117,80,37,66,42,22,16,18,20,43,46,33,62,119,148,142,156,154,173,148,139,99,94,129,112,152,143,134,114,53,38,75,78,98,162,155,115,140,146,134,82,60,87,81,76,39,35,82,145,119,84,93,75,75,14,10,6,2,2,15,14,9,18,12,15,17,64,65,74,91,108,87,72,92,130,120,118,140,118,74,89,76,79,64,89,91,67,98,73,104,163,182,92,50,18,23,40,28,26,50,67,58,48,77,111,150,120,113,141,91,21,13,22,4,10,51,35,28,21,136,44,50,29,34,19,23,86,49,37,16,12,13,15,100,111,155,132,95,29,17,9,14,25,61,14,34,39,13,41
11,19,26,58,96,30,53,72,48,62,63,76,96,128,176,156,109,100,60,49,81,87,14,13,5,12,13,31,17,12,7,12,17,27,16,38,37,35,25,35,53,40,83,68,19,20,29,17,28,29,20,15,19,61,66,62,43,60,61,63,69,71,70,60,95,58,67,95,61,40,80,70,75,72,40,72,67,91,128,181,147,105,58,38,45,43,77,63,44,52,29,31,11,12,10,4,3,4,10,17,23,24,46,56,28,27,26,91,66,48,31,22,19,1,4,4,14,8,4,24,56,92,141,148,121,130,122,120,135,88,104,92,45,77,73,39,5,12,37,26,115,195,203,138,156,202,176,138,81,76,122,64,25,17,21,133,132,102,91,51,33,13,12,4,4,2,9,20,16,24,33,49,73,58,54,76,66,129,157,72,114,160,181,194,209,147,88,88,143,133,77,97,107,115,166,130,91,131,179,76,62,26,22,37,36,40,58,63,38,55,87,102,119,104,145,139,39,30,13,24,13,21,42,52,36,34,35,48,92,73,41,48,115,120,92,28,12,5,7,24,138,109,131,130,160,83,14,25,19,23,55,28,48,21,15,28
8,28,43,88,50,22,27,57,35,33,56,56,55,58,93,34,35,57,18,26,32,18,75,46,24,13,18,13,4,13,7,10,18,11,23,27,11,20,42,20,14,26,48,6,1,18,39,61,73,61,59,38,10,77,86,41,24,22,44,26,33,39,36,55,79,70,75,80,75,89,58,65,92,74,86,85,87,117,135,125,96,66,58,59,49,57,55,70,61,42,45,58,32,13,3,1,1,3,10,13,13,6,8,8,12,10,21,13,14,26,19,33,26,19,15,25,26,13,5,2,12,18,20,36,71,108,112,85,77,31,81,97,37,106,32,26,6,30,43,38,89,139,165,159,142,197,214,176,102,108,91,92,39,17,17,65,90,90,91,83,73,15,22,4,0,7,15,37,45,64,75,46,57,39,45,92,83,76,89,109,124,157,195,197,181,157,113,114,136,134,119,95,96,121,184,174,112,82,44,35,21,38,15,33,34,36,75,30,31,65,90,94,80,42,86,52,16,24,33,18,13,18,116,50,6,6,9,20,37,118,100,90,139,172,131,93,26,7,3,32,65,74,68,61,153,81,22,27,18,26,37,52,55,42,35,25
21,16,45,66,43,24,12,11,14,13,26,26,21,24,60,84,19,6,3,18,30,41,43,17,33,13,28,12,2,2,28,19,35,17,35,27,20,12,43,23,22,8,8,12,17,54,57,82,73,23,31,55,38,32,83,51,90,83,35,17,35,12,7,15,42,46,50,55,66,76,72,68,66,127,112,110,131,138,127,103,134,140,136,119,87,81,53,62,48,21,37,54,41,24,3,2,4,8,11,9,9,5,6,6,9,14,19,20,6,11,22,6,4,1,15,18,11,4,5,7,24,16,20,5,7,57,64,80,83,74,111,105,72,58,64,121,101,71,101,74,97,89,107,146,109,108,186,176,105,72,42,68,23,20,17,18,54,107,74,38,43,15,9,4,5,12,24,110,128,111,52,21,15,19,43,56,73,64,92,72,83,122,136,93,108,149,148,124,140,137,101,125,154,164,178,190,138,100,63,36,15,36,31,10,15,11,90,95,72,81,106,71,87,53,100,133,72,22,22,18,6,53,59,19,6,3,10,16,38,93,153,116,148,170,93,106,106,18,11,23,24,28,28,69,151,44,27,66,25,27,47,79,26,32,30,60
34,19,24,53,79,31,12,12,17,12,13,17,12,30,18,43,31,16,37,20,22,7,13,27,11,18,11,9,32,3,2,9,9,23,28,14,26,21,19,11,30,5,4,29,39,27,35,48,34,5,33,52,37,36,48,33,76,89,57,55,57,51,51,69,56,26,28,13,44,43,40,67,106,128,140,142,141,147,139,143,153,155,117,142,157,117,71,38,21,7,34,40,19,10,5,4,6,8,7,11,8,10,11,5,12,20,24,18,10,16,21,15,5,2,4,10,7,3,4,0,10,22,7,22,58,53,36,41,46,70,76,37,25,123,119,94,67,43,21,49,24,25,82,75,70,104,101,162,143,74,107,22,20,77,151,122,88,47,42,16,16,17,4,5,18,19,22,82,132,126,27,25,22,32,46,42,71,80,85,66,46,74,78,82,127,127,142,138,149,85,89,104,158,165,123,139,129,89,43,31,42,67,61,27,19,29,98,116,96,88,103,111,126,108,109,142,80,29,21,15,36,60,72,38,11,5,24,25,42,76,110,143,201,162,153,126,91,68,26,12,15,16,25,119,149,45,48,14,23,21,40,41,45,37,28,40
10,11,16,14,16,30,9,7,7,9,7,9,45,29,24,43,20,9,6,13,17,14,8,14,22,54,14,4,31,57,30,6,9,29,27,38,38,30,32,36,46,29,34,15,21,34,27,12,13,16,57,57,13,17,21,71,59,81,76,38,66,107,94,99,119,122,109,69,97,66,79,125,101,123,131,132,135,160,153,166,155,142,133,135,169,154,101,9,8,4,27,17,6,1,2,10,12,13,5,10,10,17,27,22,7,10,20,20,13,19,23,16,6,1,5,6,3,5,4,1,6,6,2,47,108,104,96,100,93,86,22,36,97,110,106,79,39,26,3,7,9,10,22,13,16,67,60,110,85,17,61,2,4,101,166,112,96,100,30,33,16,10,3,5,43,31,14,25,59,164,56,53,94,83,40,23,12,20,46,53,43,48,68,60,82,104,131,149,72,110,120,102,97,132,151,130,91,67,43,37,37,35,48,44,63,38,30,73,96,73,70,118,144,150,158,137,105,47,30,7,32,71,53,83,39,31,41,38,17,27,47,42,106,158,141,76,35,129,33,13,28,6,27,120,156,55,80,50,13,16,11,25,32,36,29,28
12,9,45,24,8,14,21,26,8,3,8,14,20,28,30,20,5,7,26,10,17,10,21,27,30,8,22,14,5,9,24,6,9,35,73,31,31,46,67,39,36,18,28,43,38,14,15,21,42,43,32,13,28,69,63,77,79,72,49,50,42,83,89,83,76,105,94,121,107,107,123,106,134,110,70,124,135,144,160,169,170,165,166,143,143,142,103,8,6,2,31,6,1,1,4,38,9,9,17,19,7,10,20,29,23,10,2,12,4,9,28,32,9,2,2,4,3,1,1,5,3,4,3,30,87,112,100,59,61,61,33,50,62,29,26,31,61,36,3,5,5,2,4,12,6,18,27,22,40,11,1,2,4,125,149,128,118,52,20,40,22,15,5,28,53,27,9,7,28,36,109,162,184,123,53,29,43,40,42,31,19,18,9,18,20,62,63,41,108,153,135,104,117,110,124,75,25,22,25,22,22,19,64,64,29,22,27,32,86,56,49,35,77,115,148,140,76,42,42,86,111,89,70,47,27,40,45,84,46,48,43,36,61,122,46,32,20,20,14,19,12,8,18,107,34,22,131,125,41,9,11,17,17,24,23,36
21,9,19,44,10,8,20,16,5,6,19,16,10,16,17,16,20,5,9,7,11,20,8,14,9,8,5,18,4,3,11,17,19,10,10,19,6,5,12,21,7,30,7,2,32,45,9,50,40,35,21,42,35,34,74,61,43,50,68,54,34,61,78,114,124,118,113,105,118,128,128,141,119,81,28,67,62,65,125,152,179,176,138,141,111,78,16,13,2,0,0,0,1,2,2,18,29,12,21,25,3,3,31,42,29,21,17,18,24,6,1,23,31,23,16,23,8,7,8,9,2,5,10,6,20,61,40,31,21,12,11,17,21,14,6,12,37,23,1,4,2,2,3,2,0,3,9,11,49,9,1,1,7,73,132,101,49,36,27,9,17,10,10,23,33,30,5,5,7,12,74,110,138,121,152,149,101,53,48,34,33,39,37,34,28,25,35,76,85,116,102,64,64,90,113,45,21,35,12,18,50,8,33,24,13,17,15,18,37,15,8,12,23,58,35,56,26,22,26,50,97,79,50,81,69,67,73,107,96,94,85,28,16,40,36,35,67,58,42,33,43,17,22,30,11,15,61,46,17,7,7,27,25,114,36,26
38,42,57,43,38,11,14,11,20,13,45,12,6,14,8,8,12,8,5,7,9,5,30,5,3,2,2,6,10,11,7,6,27,38,25,9,12,26,22,4,18,6,3,13,7,4,10,69,44,38,14,34,34,39,60,69,55,49,65,72,37,74,98,109,129,128,123,124,103,86,114,125,94,108,57,59,26,32,60,29,75,116,69,42,14,2,2,1,0,0,0,0,0,1,2,1,1,1,7,9,1,2,53,62,59,29,52,61,33,38,25,13,13,3,1,2,4,7,6,13,21,19,8,6,9,33,32,15,7,22,34,9,5,3,5,13,16,6,2,2,6,2,4,0,0,1,3,1,3,1,1,0,3,26,69,59,27,30,34,17,12,18,14,7,33,29,8,7,5,3,21,47,38,48,63,58,47,48,36,38,57,37,37,40,53,70,122,46,49,58,59,21,21,54,60,38,15,14,17,60,45,18,18,15,14,24,16,19,11,23,25,25,22,9,8,18,1,6,25,42,85,44,96,133,115,68,92,130,115,91,103,58,51,63,116,146,46,19,12,40,62,30,13,5,12,17,83,18,5,7,33,10,45,67,41,29
73,92,38,58,144,90,84,64,40,66,41,23,9,4,6,15,26,14,9,15,17,4,10,3,3,14,2,3,10,7,3,3,8,13,21,10,8,32,4,9,2,12,7,14,13,3,6,13,16,42,27,9,26,31,92,112,114,81,59,70,95,114,100,79,86,108,121,112,113,133,55,102,91,98,108,72,14,0,2,0,1,10,28,0,0,0,0,0,0,0,0,0,0,1,3,2,1,0,0,3,3,2,57,50,54,17,36,40,26,19,33,39,16,20,18,4,3,4,10,3,8,34,45,19,11,33,30,18,8,34,86,61,31,14,10,13,16,9,3,3,4,4,6,1,1,0,1,1,0,1,3,1,1,34,60,34,17,30,27,31,19,11,13,8,22,53,19,4,6,6,9,7,15,22,32,46,51,50,56,65,101,76,66,82,100,100,70,51,69,88,49,36,26,24,41,50,10,23,56,22,8,12,8,10,9,29,34,44,20,13,12,29,20,26,24,31,7,6,12,25,14,10,69,90,71,64,97,124,107,109,135,132,73,94,17,81,40,9,13,23,46,49,23,5,4,18,32,6,8,50,109,54,36,55,15,21
121,104,107,141,164,105,98,79,89,122,125,42,34,49,92,47,46,68,13,10,12,5,4,5,7,10,4,11,18,10,9,7,7,11,31,19,19,7,11,8,4,14,16,19,13,7,12,7,10,11,37,24,23,59,70,98,94,78,99,102,104,117,57,51,105,126,133,133,124,107,34,25,37,68,106,13,0,0,0,0,1,1,4,0,0,0,0,0,0,0,0,0,1,1,3,2,0,0,3,2,10,37,81,42,62,28,37,17,40,37,15,4,10,9,25,24,26,35,12,5,10,5,9,29,38,36,59,32,28,11,40,79,71,77,43,21,17,9,2,1,1,1,4,3,1,1,1,0,1,1,3,28,60,38,32,12,52,78,69,32,3,11,27,16,19,10,13,6,7,13,29,20,17,66,71,99,63,31,44,53,77,57,35,35,35,53,55,56,98,100,85,48,61,70,118,42,27,25,43,12,9,11,8,10,15,19,21,16,15,15,12,14,15,26,23,23,30,31,24,9,20,16,13,28,30,31,36,73,86,91,116,111,111,98,20,54,91,26,43,43,81,23,56,8,6,18,10,6,14,42,153,153,116,101,104,70
61,65,83,67,46,34,50,66,76,77,78,78,69,91,113,66,57,93,36,33,30,13,8,8,5,7,6,4,1,14,6,8,10,24,27,20,5,9,22,15,37,42,38,10,14,8,15,13,35,20,23,19,46,61,60,71,90,53,47,48,66,63,84,106,90,139,138,134,133,143,129,64,35,31,93,35,2,0,0,0,0,1,4,4,1,0,0,0,2,0,1,1,1,1,7,4,0,7,7,13,41,59,54,33,29,36,47,36,47,15,42,42,45,68,28,43,39,35,21,28,28,37,33,19,15,21,26,31,22,5,4,27,77,72,43,25,29,11,2,0,1,2,2,1,0,0,0,1,0,1,3,11,71,25,15,26,67,73,58,28,33,20,33,23,35,13,17,7,31,46,27,23,12,35,44,41,42,31,28,24,19,30,25,31,36,39,74,100,122,156,167,88,84,94,81,57,52,18,25,6,9,7,3,2,4,12,15,13,15,9,8,12,13,21,16,17,40,20,42,21,43,7,14,26,21,22,26,17,29,56,62,98,82,87,96,95,65,40,52,72,41,87,93,48,14,16,2,5,47,70,91,90,83,91,112,61
32,19,20,27,35,22,21,38,36,39,66,69,96,91,71,53,73,124,90,49,112,34,12,2,4,6,9,7,3,7,8,8,12,28,22,21,19,3,23,7,16,29,39,36,32,25,38,44,63,45,45,70,72,67,96,106,79,67,53,71,52,91,107,88,121,141,144,140,135,146,142,136,107,52,36,57,42,7,0,0,0,0,1,0,0,0,0,0,4,0,1,3,1,2,1,8,1,9,46,23,44,61,51,52,14,29,29,50,68,41,38,43,25,45,41,39,37,54,67,61,57,54,43,41,50,57,30,4,1,0,1,7,36,71,57,31,35,22,3,0,1,2,2,1,1,0,0,0,0,1,3,25,33,15,9,16,66,71,66,34,14,78,58,28,22,37,13,17,41,23,15,36,43,48,54,43,47,56,47,44,25,25,31,31,32,37,36,80,124,123,151,138,46,53,110,80,34,9,9,6,3,3,3,2,6,11,20,12,16,41,10,6,9,19,41,29,28,4,1,0,0,1,1,1,1,2,0,1,1,18,7,12,77,74,73,37,58,77,78,106,60,30,93,89,49,13,10,40,53,13,9,48,59,83,88,104
22,9,26,35,36,52,33,39,38,31,61,65,62,44,54,65,81,152,166,78,54,15,18,10,8,4,41,23,2,7,12,8,9,13,19,10,27,34,19,35,45,35,42,44,43,47,61,77,69,75,65,70,103,119,123,122,105,107,73,80,46,73,57,76,118,115,123,126,131,133,135,140,123,129,10,26,26,60,58,11,2,3,0,0,1,0,0,0,6,3,6,2,4,1,2,6,3,20,25,25,22,13,23,50,48,39,10,16,28,15,23,31,48,42,49,62,57,46,54,47,26,11,7,17,6,28,28,10,3,1,0,5,6,49,59,61,75,12,1,0,2,2,3,2,1,0,0,1,6,19,14,30,33,88,59,51,83,99,51,46,16,53,38,86,4,2,3,3,22,41,67,70,56,34,28,48,54,52,44,35,35,53,50,42,45,44,73,76,113,133,134,139,122,154,159,96,82,20,8,5,6,2,5,3,8,13,26,21,4,4,8,13,11,11,25,1,0,0,0,0,1,0,0,0,1,3,0,0,1,18,11,17,23,63,131,140,109,63,73,121,68,27,54,147,114,29,38,105,77,24,7,19,63,76,78,110
32,41,26,20,36,44,42,18,10,22,27,43,46,45,30,35,49,135,180,171,129,24,16,15,13,9,69,24,4,19,34,3,14,5,7,10,24,31,45,23,31,32,39,36,29,37,42,50,50,59,55,81,107,106,114,118,88,69,80,83,67,47,43,103,119,119,122,116,118,135,144,133,128,96,20,5,6,2,23,53,14,5,5,1,0,0,0,0,3,10,5,5,4,4,5,2,5,22,24,45,18,3,35,47,63,69,46,32,36,44,29,36,34,67,94,90,68,31,31,26,19,13,14,7,19,15,3,4,15,26,1,9,11,22,73,73,93,1,5,4,3,3,3,2,4,1,0,3,12,16,63,94,88,98,47,112,90,62,53,2,3,4,46,65,6,25,50,52,31,29,20,25,43,34,36,39,27,31,32,31,26,28,38,41,57,64,74,69,64,105,114,115,142,151,137,133,125,120,13,6,44,3,12,4,15,6,6,5,0,0,0,3,5,2,0,1,1,1,0,1,1,0,0,1,3,0,0,1,3,1,5,39,37,42,41,90,114,136,130,126,152,84,53,135,143,69,42,124,40,21,8,14,38,62,52,55
65,60,63,44,55,41,57,77,48,44,21,19,14,16,27,29,40,68,169,186,192,117,59,40,37,43,93,40,4,11,19,17,6,10,13,25,9,17,24,26,30,24,27,18,21,31,39,38,45,53,52,94,99,101,103,99,93,72,81,83,58,77,69,63,114,124,116,111,105,99,118,142,148,137,91,56,28,4,3,18,17,3,10,15,2,0,1,0,2,4,5,9,2,2,4,2,5,31,80,94,42,10,29,13,24,26,56,57,71,68,30,42,66,76,55,83,50,37,41,23,27,19,13,8,14,15,18,7,12,32,1,1,8,26,51,61,50,3,6,4,6,5,4,3,4,1,2,6,5,6,24,73,84,113,93,114,100,41,37,6,48,22,79,38,49,54,52,43,11,16,27,34,38,31,36,32,38,46,64,56,43,38,38,26,38,46,59,77,70,62,56,57,109,132,113,139,144,150,121,25,17,1,16,4,6,2,3,1,0,1,3,5,7,1,0,1,1,0,1,4,1,1,1,2,2,2,0,0,3,2,2,4,5,25,21,36,36,75,134,97,125,151,117,45,81,53,72,171,53,28,10,13,12,38,43,65
48,31,41,63,66,78,85,70,35,32,50,33,35,32,47,50,23,45,146,178,185,193,91,89,73,18,26,4,15,23,43,55,7,23,9,49,17,19,12,19,25,24,18,21,23,19,27,45,55,39,55,98,93,63,49,29,41,66,73,95,90,52,44,73,51,76,104,117,109,108,101,88,117,151,139,94,92,47,5,9,5,2,4,19,11,8,1,5,5,4,4,5,17,16,4,6,22,77,128,138,77,42,17,30,14,7,2,1,14,39,30,45,62,65,73,84,28,27,30,19,22,22,29,15,13,12,15,17,5,82,8,1,2,41,19,32,46,4,4,3,6,6,5,3,3,3,3,2,4,9,3,45,49,50,45,30,57,34,93,13,33,49,103,29,58,39,8,13,24,22,36,46,44,48,58,45,38,44,50,43,38,43,35,39,47,48,38,40,46,47,67,61,55,65,67,85,129,143,160,128,38,7,18,9,2,2,1,2,4,3,3,1,4,0,1,1,0,0,4,4,1,1,2,2,3,1,0,3,3,2,3,0,0,6,7,15,13,31,19,13,42,72,132,127,51,44,86,149,153,55,16,11,3,22,22,43
59,23,47,65,108,100,30,14,25,55,54,50,37,37,44,33,40,37,66,158,184,195,161,90,60,47,18,11,8,29,22,4,14,20,7,5,8,49,38,22,15,23,14,15,20,40,61,62,58,53,54,64,66,73,75,78,82,75,58,56,56,58,55,50,67,69,85,115,115,114,105,101,92,101,141,129,71,94,14,23,17,27,18,3,7,16,13,6,9,6,10,12,1,4,6,8,22,136,114,127,121,88,18,44,8,66,42,2,7,4,32,28,31,42,93,85,72,82,50,23,26,17,25,19,14,12,8,13,2,30,33,1,3,29,46,26,75,7,3,5,4,6,6,4,3,4,1,1,2,11,17,32,29,65,19,10,5,31,45,13,19,79,94,50,39,12,6,32,27,41,32,39,58,55,58,40,34,30,34,48,58,63,62,71,89,97,103,78,63,42,52,42,51,55,39,40,78,128,136,159,127,30,17,7,3,6,8,4,2,1,0,0,0,0,3,3,3,5,5,4,2,4,3,4,5,3,1,6,4,3,1,0,1,0,2,2,3,17,9,4,4,9,37,63,57,42,79,108,162,123,45,4,9,9,8,31
37,61,65,100,113,39,3,11,33,38,29,27,17,29,25,48,36,17,16,107,173,186,190,148,89,77,23,15,18,9,20,10,18,22,19,9,11,7,24,27,27,21,14,36,64,69,85,93,88,80,77,72,68,64,46,85,80,60,53,42,45,48,43,44,48,44,81,116,111,116,113,106,110,110,102,127,109,77,12,37,38,11,23,20,5,2,10,12,2,23,11,4,17,3,2,9,43,128,121,124,134,100,107,66,14,25,41,21,6,7,71,84,46,16,60,66,83,92,91,72,59,27,22,24,17,11,4,4,7,8,23,2,2,6,36,25,69,16,5,4,4,8,10,8,6,8,13,10,63,76,34,58,59,43,5,1,3,1,2,4,17,78,104,35,11,2,0,20,36,39,44,39,52,54,53,43,41,43,47,57,58,54,67,82,88,89,95,101,98,94,73,53,52,43,29,18,19,54,77,90,145,112,47,24,13,2,5,5,0,0,1,2,3,4,5,6,7,2,4,5,5,6,7,4,2,1,2,3,5,7,4,0,1,0,0,0,20,52,33,12,16,9,6,6,17,63,71,112,134,131,50,10,13,4,19,39
43,46,34,62,18,5,8,7,21,33,45,51,30,26,54,27,21,14,19,54,156,176,184,181,133,78,47,32,14,15,13,22,38,25,60,45,33,18,19,1,12,6,18,60,79,61,54,47,28,28,38,29,38,21,23,11,14,21,21,19,19,22,32,74,91,74,83,99,102,114,116,113,112,125,133,115,116,119,12,6,5,10,14,15,5,3,4,4,10,3,4,9,7,2,11,38,78,123,134,160,155,121,133,115,126,86,26,6,12,31,63,110,120,71,57,96,79,101,111,92,92,64,30,20,15,11,11,12,11,25,42,11,8,9,46,68,62,24,6,6,4,4,10,7,8,6,3,8,12,40,47,86,110,45,16,8,9,5,7,28,19,64,93,84,24,17,6,8,18,36,38,37,61,58,60,58,61,54,63,59,54,50,63,77,72,62,59,57,60,73,93,93,58,53,60,33,14,16,21,28,75,81,111,39,21,30,14,3,2,3,4,3,3,2,4,5,3,1,3,5,4,3,4,2,1,0,3,4,4,7,8,5,0,0,1,0,25,43,34,23,17,26,7,9,4,32,71,113,173,121,119,82,8,3,19,38
66,56,42,33,26,28,23,15,22,39,43,47,31,39,51,46,26,20,24,28,58,127,166,181,182,171,119,57,46,44,47,87,75,79,112,59,51,12,7,4,4,8,38,70,54,41,40,20,9,27,14,9,12,15,13,9,14,20,32,35,40,58,61,77,116,101,114,109,127,105,96,110,109,110,113,113,115,95,8,8,20,45,87,73,64,54,12,4,10,11,4,4,6,4,5,10,11,78,114,123,167,154,160,155,182,122,93,55,17,21,64,90,88,101,79,88,91,105,101,92,71,44,42,19,24,42,21,6,15,46,76,36,11,10,16,52,61,46,8,6,6,8,11,8,5,5,7,16,34,97,111,93,102,98,13,19,51,44,29,79,73,64,60,62,8,4,4,24,29,28,36,40,84,77,69,85,84,71,75,76,72,64,68,80,84,89,88,85,57,46,62,54,52,54,35,63,60,25,11,13,26,77,121,136,87,33,20,14,19,16,14,6,1,0,2,4,4,2,4,3,2,2,5,3,1,1,3,5,7,26,33,17,5,20,27,7,16,32,15,13,21,30,46,9,4,6,25,30,99,162,146,133,30,11,40,63
43,15,24,34,16,58,39,37,39,28,36,36,46,55,43,29,36,32,39,42,30,48,125,170,181,182,176,156,122,86,141,201,176,199,156,83,94,124,81,22,18,35,73,29,22,45,63,18,35,25,47,29,19,31,28,12,17,33,42,61,80,104,119,105,119,109,112,114,116,124,129,108,111,106,111,109,102,75,11,23,66,138,201,176,198,149,60,20,5,7,20,10,9,10,6,10,1,7,48,91,141,139,156,180,185,152,132,62,12,2,16,45,39,50,54,77,90,112,104,105,102,73,62,26,42,43,32,14,16,59,73,70,32,22,21,36,46,93,44,5,4,10,14,13,11,9,20,76,131,156,156,173,149,64,49,48,72,57,94,79,66,84,82,28,18,9,2,12,24,39,37,52,82,75,64,59,63,62,67,65,55,71,73,78,89,84,96,99,80,63,64,54,54,52,45,40,51,66,51,16,17,32,103,143,158,64,36,36,46,47,71,36,2,1,2,4,3,3,6,6,5,4,4,3,2,3,4,5,14,92,111,68,37,94,97,27,46,37,13,17,10,16,22,33,26,7,29,18,20,102,125,90,67,24,25,58
28,13,18,45,43,39,54,42,25,60,64,82,85,97,116,86,42,28,34,22,20,34,92,136,164,181,170,174,188,180,198,174,184,181,162,98,77,72,31,28,23,36,32,17,13,51,104,91,47,18,23,28,19,22,30,14,29,42,39,36,52,84,103,95,107,111,118,131,126,133,128,114,97,93,100,115,94,92,4,21,110,186,170,180,180,161,100,62,34,4,9,20,14,22,17,9,18,4,26,110,160,160,155,183,175,156,138,69,16,1,3,20,29,39,24,55,80,101,105,104,98,66,42,55,17,25,50,30,19,55,56,46,37,44,56,51,33,70,69,6,7,7,23,42,65,42,56,105,167,169,160,142,107,40,48,50,60,83,124,112,47,58,88,23,17,31,23,7,22,20,23,36,70,67,55,59,60,61,75,79,71,78,73,56,68,66,52,60,62,55,55,60,60,47,43,48,54,35,51,59,20,16,57,67,134,102,31,45,65,55,72,78,25,33,30,9,5,4,5,6,7,2,4,5,5,6,7,4,14,64,88,60,103,141,142,79,72,15,8,10,9,13,17,18,39,30,13,17,12,42,116,121,122,88,21,39
27,22,27,59,48,31,26,48,39,30,76,72,36,63,143,149,68,39,35,41,25,43,78,100,106,163,118,154,180,188,185,145,150,179,173,107,66,22,19,24,21,13,10,30,17,43,46,83,87,48,15,30,27,20,27,33,31,36,35,35,47,36,70,97,117,120,107,117,129,130,111,98,61,67,68,84,96,78,3,22,89,74,65,119,135,163,133,113,114,73,33,53,67,27,18,5,9,5,7,43,119,151,169,199,195,172,167,132,42,7,4,11,16,10,4,11,15,46,81,105,105,78,46,19,9,16,38,35,23,12,70,72,51,44,81,44,27,60,91,9,10,11,38,58,83,112,140,138,165,174,156,131,96,57,30,26,31,59,42,69,36,39,128,146,140,95,117,19,27,10,4,8,13,17,21,40,48,33,44,54,57,47,45,41,45,44,48,41,66,60,47,37,41,44,52,61,63,65,48,66,44,30,25,25,52,70,36,43,44,63,52,45,50,84,134,51,24,30,11,5,4,4,3,4,4,3,5,2,2,12,13,21,84,93,120,104,109,10,7,4,8,13,16,13,20,12,23,14,16,35,47,114,158,137,126,93
43,26,4,20,28,19,17,8,5,5,18,35,75,87,71,144,84,81,41,41,37,26,27,25,31,66,68,104,121,171,165,152,166,154,152,83,39,30,74,48,29,8,8,14,20,22,33,44,22,125,37,25,55,59,21,16,45,50,35,29,35,26,43,80,107,111,111,130,134,133,118,99,52,43,44,62,100,49,7,39,64,48,66,90,37,36,33,58,69,64,38,20,26,15,4,0,10,20,11,10,46,115,98,157,171,163,178,142,83,36,29,18,18,2,0,2,28,52,70,85,113,101,57,20,18,44,27,32,20,36,59,32,43,45,55,51,8,45,125,105,10,5,11,42,70,124,184,153,162,161,137,96,95,68,33,59,33,45,44,16,62,79,136,128,151,153,179,176,52,20,5,2,5,2,3,15,6,15,57,44,51,36,45,49,50,34,42,42,25,18,55,44,44,55,63,54,50,42,60,52,45,56,19,24,20,22,18,21,41,67,68,57,100,40,127,133,98,72,26,4,5,1,2,3,2,2,4,3,1,10,11,12,19,58,76,81,110,23,3,4,5,7,8,7,10,11,25,11,17,21,84,101,166,161,84,53
58,14,9,40,27,22,10,14,9,4,2,24,55,162,106,94,81,76,88,38,46,22,24,16,12,6,13,20,24,73,106,97,143,139,117,76,18,8,23,21,16,9,15,19,18,29,47,88,63,135,53,43,13,41,45,30,36,42,63,13,28,8,20,68,114,91,101,126,123,124,130,77,53,49,38,44,88,25,12,39,77,26,44,31,6,2,2,16,28,23,11,15,18,25,9,0,3,3,16,26,64,115,78,110,178,163,182,172,116,56,59,44,16,5,8,20,20,76,35,74,105,90,77,29,45,34,39,31,24,30,44,56,48,47,37,62,4,42,90,118,43,9,5,13,47,103,148,115,118,162,131,102,127,141,103,116,111,89,81,47,35,67,71,63,69,57,83,139,152,90,47,8,4,7,2,2,4,9,28,48,53,54,57,44,56,43,44,50,56,41,35,45,45,54,45,41,44,52,47,52,18,34,35,11,11,25,34,33,54,70,102,73,72,62,84,166,177,120,90,37,20,6,3,4,7,5,2,3,4,7,11,6,18,31,19,15,67,43,7,1,0,4,4,5,3,9,22,9,13,11,48,123,107,94,54,42
42,33,53,39,47,38,14,6,8,5,3,5,30,98,151,106,50,72,94,54,33,25,43,29,20,8,6,19,40,31,69,79,85,110,85,62,29,18,27,25,13,8,18,43,24,30,32,82,62,96,135,117,34,56,67,32,28,23,50,37,16,13,18,39,56,30,72,118,124,137,125,64,71,54,26,7,8,9,13,21,46,12,7,3,5,1,1,2,14,31,28,33,18,9,14,12,0,1,10,37,31,110,61,53,154,194,200,186,178,104,107,55,32,41,56,59,81,71,111,67,87,115,89,65,32,12,60,16,45,63,60,69,58,45,43,84,15,49,101,99,45,14,4,10,12,56,100,128,155,151,114,118,118,104,99,55,61,59,88,127,36,32,53,44,60,44,91,131,143,175,134,71,46,18,14,6,5,1,15,27,24,29,37,36,40,29,18,53,66,61,38,45,26,58,70,66,54,62,51,73,39,43,44,29,30,52,78,65,50,64,100,91,66,115,88,100,156,186,190,137,41,7,3,4,17,11,5,4,9,12,9,1,9,13,11,8,29,22,10,10,4,10,21,25,15,18,5,2,6,11,54,111,140,98,94,45
26,21,45,58,50,44,18,18,40,23,11,2,10,54,180,192,85,97,109,66,35,68,21,6,6,9,15,5,28,74,101,80,54,97,63,32,33,62,75,33,18,8,12,28,35,40,39,131,77,32,73,127,106,107,142,63,23,24,17,52,31,19,18,5,13,2,37,60,106,122,125,97,94,90,17,1,0,3,27,21,28,17,18,4,5,2,1,1,1,5,22,33,34,33,44,14,14,2,4,6,57,58,72,103,98,161,198,191,183,143,91,95,66,55,32,19,12,15,91,137,103,117,113,58,12,23,54,7,9,35,64,83,89,51,82,114,99,82,108,125,100,19,5,1,26,61,75,133,100,96,97,103,73,38,29,22,22,22,24,28,19,27,33,18,20,35,19,65,111,147,175,191,178,107,51,26,12,3,15,51,30,3,5,9,18,45,61,44,32,36,34,36,29,31,54,57,54,55,50,56,75,69,27,40,41,58,65,65,56,77,90,95,134,131,131,86,141,192,198,157,40,1,2,4,10,19,14,18,24,24,15,10,15,9,1,5,17,3,2,2,6,16,31,20,40,45,42,24,4,2,8,48,58,143,141,72
72,36,43,40,48,45,24,12,8,25,26,8,4,69,129,194,190,97,110,56,33,38,4,7,5,12,12,22,47,66,107,104,109,68,58,27,77,87,37,30,6,4,15,57,68,54,93,95,85,75,52,39,57,50,97,120,78,13,10,38,48,14,22,14,20,13,11,3,46,105,108,98,76,78,25,0,0,8,29,0,3,8,2,0,0,1,3,2,2,11,17,25,22,29,27,123,30,4,8,13,19,100,34,89,121,127,172,178,191,113,128,91,45,17,36,46,44,18,58,110,115,137,109,102,33,20,39,29,8,6,34,69,116,81,92,97,84,111,116,37,45,10,16,7,9,94,97,60,31,18,48,88,64,28,30,65,69,60,47,27,27,38,22,22,15,16,23,29,71,70,118,157,181,165,168,118,71,19,22,27,47,3,0,0,1,32,77,63,29,25,40,40,39,48,35,44,45,56,65,44,82,106,53,57,77,85,49,74,93,94,136,106,139,166,176,191,184,193,189,186,154,44,7,0,7,5,11,13,12,11,34,30,25,20,8,8,15,6,4,7,14,26,21,22,14,20,14,33,60,40,16,45,65,48,79,78
56,57,37,26,54,31,22,15,24,7,15,13,4,50,115,185,205,131,139,83,48,16,14,14,10,11,0,11,28,83,65,62,103,98,43,47,64,81,34,13,0,0,3,30,16,44,68,84,92,83,67,57,54,30,50,73,96,69,61,22,45,43,28,68,67,62,39,28,36,41,86,102,82,65,21,0,0,29,14,1,0,1,1,0,0,0,1,6,26,23,18,15,21,32,43,77,155,22,7,5,14,17,83,65,107,151,164,177,167,151,128,57,35,53,32,40,38,64,62,110,92,135,135,101,22,14,13,16,44,32,13,24,73,77,93,103,85,80,119,141,133,87,81,98,102,56,30,34,35,49,67,30,30,76,115,95,72,55,55,35,39,40,40,29,26,41,40,10,30,60,73,66,70,123,172,202,185,122,60,33,45,4,0,0,2,6,52,63,75,40,62,60,54,62,37,44,59,54,77,71,95,94,95,83,132,134,47,97,130,119,127,97,113,72,124,185,165,171,143,139,176,112,65,17,7,2,5,7,13,23,57,34,57,24,12,18,26,43,7,2,21,38,29,34,39,61,66,38,26,37,73,83,67,74,68,70
80,58,38,14,38,38,29,11,15,31,29,38,14,44,95,198,199,150,141,94,68,24,16,17,3,0,0,10,41,102,62,67,82,99,63,49,65,60,39,18,17,17,9,44,57,62,60,59,64,87,103,47,38,61,57,46,60,90,98,67,29,35,46,50,52,64,105,83,70,31,54,90,108,76,21,1,1,19,5,1,1,2,0,0,0,0,2,27,30,6,40,47,22,20,28,46,124,116,11,7,2,10,79,81,60,120,172,169,182,170,153,102,70,72,48,67,71,45,70,65,58,130,108,35,24,4,3,4,10,30,39,7,32,97,76,51,88,68,103,135,122,106,63,64,48,46,38,41,47,79,110,88,85,139,110,74,54,79,41,44,42,39,26,46,53,53,59,38,25,31,69,71,66,48,65,123,192,189,163,92,57,26,4,2,6,1,20,31,75,60,23,53,45,73,31,35,41,43,71,60,77,73,96,113,144,141,143,112,116,140,103,117,128,133,60,134,78,124,110,107,158,132,119,99,52,9,0,7,28,104,95,86,69,22,12,27,80,77,22,36,29,33,23,35,73,89,101,96,83,57,28,66,99,72,72,47
46,65,94,19,22,34,36,21,21,17,10,35,25,118,69,159,192,163,145,110,52,28,11,28,40,19,13,1,19,102,115,57,94,77,71,58,46,60,47,51,61,40,46,61,85,80,84,67,61,44,81,86,47,74,74,56,42,43,60,87,106,79,90,97,112,123,100,115,113,69,51,74,99,95,47,2,3,13,18,6,1,4,1,2,0,1,3,3,11,31,52,86,85,49,38,20,73,159,40,9,1,16,53,62,63,78,136,181,180,170,153,135,62,71,71,62,69,89,92,65,39,37,28,13,5,13,4,2,9,7,42,57,20,95,132,60,66,65,67,53,44,51,62,64,70,42,6,32,97,102,122,115,145,138,124,79,42,52,59,64,68,63,37,31,51,58,53,58,42,58,61,31,45,69,46,49,77,151,193,191,163,105,62,26,9,8,2,3,42,31,39,43,44,102,62,63,45,39,38,32,26,35,40,72,71,114,148,150,109,112,134,136,116,129,133,90,71,128,126,125,152,114,146,149,99,52,37,34,88,111,125,114,120,81,48,36,110,128,34,61,50,33,35,64,71,65,91,107,102,100,79,40,42,88,95,29
16,37,91,34,16,46,51,34,27,22,22,15,10,124,94,157,186,164,121,82,44,57,53,54,87,71,61,47,30,22,52,68,46,51,67,80,79,104,93,84,109,103,73,77,95,75,60,66,88,75,60,75,71,77,87,66,85,61,54,45,55,59,72,69,78,89,130,110,109,108,77,40,77,115,72,6,5,9,17,33,7,4,2,3,0,0,0,4,9,31,67,179,118,89,46,34,66,156,70,22,22,50,72,73,93,113,142,176,190,181,170,143,102,92,90,91,98,124,97,20,4,5,17,20,11,17,6,8,7,3,8,37,78,62,122,99,48,28,54,45,46,63,70,46,22,40,29,36,40,76,112,146,139,158,147,87,89,69,58,37,46,44,53,82,48,32,57,58,68,53,72,59,33,52,38,51,62,70,151,197,195,184,144,89,59,76,26,3,7,23,9,36,19,42,40,36,31,10,4,13,22,45,31,35,50,40,62,110,126,104,77,61,121,85,86,113,124,123,150,174,167,153,125,135,114,105,137,117,133,131,106,129,108,92,84,133,162,154,79,101,105,57,54,31,41,41,46,71,89,79,32,19,66,91,69,18
30,39,110,31,14,60,53,78,59,45,49,39,13,90,155,171,181,166,119,88,57,54,50,15,64,60,98,84,65,8,51,58,71,67,117,91,117,103,85,64,86,99,90,95,77,84,77,74,83,90,63,73,68,50,60,72,90,93,86,79,62,56,73,86,86,93,79,86,124,132,123,105,77,98,131,60,22,50,18,24,33,15,3,1,0,0,1,4,9,61,90,163,36,30,28,71,45,121,74,37,56,73,141,81,116,100,142,166,186,184,182,142,113,64,47,57,31,22,36,32,55,10,33,51,74,68,33,23,13,14,5,25,86,99,92,123,77,45,27,50,60,35,19,10,3,3,2,6,15,65,126,150,162,152,123,92,68,50,38,36,43,46,62,56,12,21,39,58,52,90,65,66,33,39,30,46,29,62,103,159,192,195,196,172,99,103,73,34,5,1,9,6,17,12,22,54,13,21,13,28,44,15,38,38,44,67,85,74,64,79,59,69,53,57,98,95,110,116,132,146,155,142,170,146,154,103,90,121,149,149,163,163,146,135,152,133,120,124,145,110,102,59,52,45,50,38,26,29,33,19,66,33,34,58,97,63
80,28,128,54,16,31,72,73,45,85,74,59,28,99,162,168,189,154,128,122,73,46,27,46,76,85,103,88,66,3,7,40,97,117,127,116,131,127,124,116,120,124,104,100,114,116,103,83,83,102,101,78,59,79,57,55,59,39,60,79,85,70,97,95,89,87,105,100,87,111,140,151,136,119,140,147,94,69,104,62,64,24,3,1,0,0,2,6,31,81,136,148,155,132,100,46,40,86,72,43,17,91,141,174,174,157,137,167,157,173,147,103,100,58,40,55,75,109,120,118,92,77,83,75,62,39,27,19,28,33,36,34,92,134,79,121,136,67,34,31,25,13,12,5,1,0,1,17,80,102,130,151,148,159,127,73,64,37,21,24,42,44,32,18,18,33,41,36,52,53,54,66,83,68,57,40,33,30,60,44,106,171,193,196,175,119,125,98,43,5,46,65,71,48,24,30,21,68,62,44,5,13,58,67,98,100,96,82,72,89,59,73,72,47,58,91,68,72,109,145,161,154,136,141,140,102,107,111,125,138,121,130,163,163,175,130,97,104,120,120,56,46,27,33,35,20,31,21,4,25,56,53,27,45,52,63
74,57,143,75,22,53,45,47,76,117,67,66,61,45,123,117,128,149,147,138,112,74,64,55,70,82,101,72,66,5,0,0,24,13,1,2,22,61,104,124,131,131,108,97,109,123,130,128,109,111,122,137,121,101,88,99,99,86,77,66,76,67,76,95,113,115,96,97,96,134,141,146,139,128,152,167,140,121,119,133,91,46,5,4,2,1,2,10,43,56,130,92,68,98,83,110,123,93,94,49,38,84,145,157,177,140,158,134,124,127,151,129,124,74,90,133,121,129,103,79,71,75,46,44,40,41,62,53,50,32,18,65,74,98,116,88,157,86,29,22,21,16,17,10,6,5,10,60,95,144,132,135,137,166,139,89,55,39,31,33,27,49,27,28,25,25,30,37,28,46,67,78,65,73,51,61,55,15,16,50,44,65,144,181,194,165,101,115,97,59,87,95,98,85,78,43,62,47,13,3,10,63,87,88,106,122,98,74,71,79,77,57,59,63,35,23,21,34,60,89,133,123,122,125,136,93,62,56,61,73,76,66,69,92,159,165,154,142,102,102,54,38,34,60,32,32,28,20,43,51,64,44,75,91,47,85
45,91,117,26,23,33,30,76,105,133,145,92,56,71,92,78,72,128,140,136,150,145,111,83,94,100,119,102,103,85,60,42,5,2,3,15,34,11,8,73,91,115,97,76,87,88,120,139,124,126,112,120,141,143,120,109,100,110,106,100,99,82,48,50,60,80,75,88,93,72,82,136,164,172,172,159,121,98,126,103,89,33,4,9,3,1,1,15,23,98,141,79,125,98,50,66,93,98,84,108,124,120,156,149,156,156,150,135,127,133,129,153,137,79,82,93,77,117,54,56,80,71,92,107,89,96,123,88,58,121,94,84,101,104,136,136,176,139,65,25,23,23,18,9,6,27,13,18,52,110,124,132,131,147,149,74,43,41,46,40,41,40,67,62,40,33,38,38,38,60,58,46,23,34,18,37,46,12,22,16,7,6,42,131,176,158,113,134,110,76,83,74,80,93,97,90,64,15,1,5,44,91,81,85,112,122,106,82,60,65,72,88,82,55,60,73,52,24,37,58,114,111,101,105,93,74,62,61,56,51,49,40,44,18,23,120,176,167,124,86,77,36,43,57,18,26,80,95,50,88,51,77,134,107,12,56
107,125,131,54,17,42,11,44,101,136,129,149,105,108,100,51,59,93,132,144,156,168,156,122,97,108,116,113,109,102,97,97,83,48,66,68,42,28,9,0,1,4,32,69,70,84,107,122,122,123,102,78,82,65,92,116,117,101,80,71,79,83,56,20,18,24,19,15,21,73,50,52,135,184,191,178,81,34,90,87,75,55,37,16,4,1,1,5,8,61,145,126,132,100,35,28,48,85,108,138,150,154,165,162,152,141,112,120,144,143,145,124,137,97,61,77,94,106,57,72,90,81,91,86,68,75,91,90,83,111,128,116,110,112,98,162,167,129,67,58,42,59,39,25,14,10,14,30,70,96,142,148,148,158,160,73,88,52,40,35,38,43,91,90,59,59,47,52,44,58,48,44,47,25,21,35,39,11,18,4,7,7,4,26,123,167,159,152,85,64,50,92,69,75,70,110,60,10,3,8,51,63,57,57,109,132,142,146,108,64,77,73,81,104,115,83,71,63,66,46,86,84,87,86,101,85,74,60,59,62,60,57,36,22,9,51,164,189,154,112,95,84,65,19,33,34,43,71,83,34,62,86,124,178,87,63
139,157,115,72,18,30,1,11,75,120,154,151,126,120,101,56,59,97,119,141,162,164,165,143,137,142,149,133,138,151,159,160,160,168,158,142,133,106,90,73,60,60,61,66,69,88,122,124,127,132,132,119,102,92,75,74,82,88,111,112,95,60,34,13,9,10,8,8,12,25,47,54,75,152,203,189,98,76,86,72,55,60,62,16,7,1,5,3,7,8,31,101,107,119,66,53,109,165,174,177,182,168,145,144,128,121,124,105,91,118,122,140,139,126,117,106,93,74,73,102,88,76,94,80,78,94,104,106,106,120,103,139,132,135,125,163,159,151,104,58,89,67,73,22,19,6,39,73,91,107,141,145,146,136,152,107,83,93,61,106,88,101,121,127,98,92,85,71,60,57,43,44,27,41,15,30,27,38,13,5,10,4,4,4,27,152,176,159,110,67,16,58,96,79,64,96,60,28,13,30,49,77,68,74,114,135,144,138,81,73,71,53,56,53,54,67,63,54,49,56,53,88,96,101,111,112,114,93,75,55,37,30,25,33,27,39,98,140,122,102,110,107,67,53,44,29,25,26,39,37,55,49,78,167,163,111
180,162,122,99,76,23,25,3,12,53,92,133,156,148,139,148,131,144,150,147,176,166,140,133,140,146,145,138,147,152,115,131,125,114,110,108,129,140,147,152,151,152,150,131,104,96,122,127,119,130,132,107,89,108,113,113,118,118,130,146,156,126,72,42,26,19,15,19,15,13,12,43,90,137,167,185,79,45,65,60,64,63,62,15,21,15,16,13,6,3,7,30,76,89,123,85,126,154,163,145,157,152,139,130,103,87,78,81,93,102,108,124,127,112,120,121,124,113,89,74,88,98,104,89,89,98,110,106,119,122,101,109,111,125,139,166,155,147,119,75,66,83,90,47,36,13,15,38,48,41,36,58,50,61,142,102,78,76,109,125,86,119,113,117,92,76,96,81,70,64,44,40,34,22,41,56,64,105,19,8,8,8,6,12,15,80,162,175,145,92,44,26,39,70,78,102,84,51,21,68,79,105,112,108,106,125,140,145,108,81,58,59,56,48,45,40,33,37,50,54,73,118,112,96,111,117,110,97,88,59,38,37,52,25,23,56,60,82,107,118,124,149,130,78,56,33,26,31,35,22,33,30,53,104,168,168
179,155,122,96,89,66,37,15,5,5,24,61,109,137,136,131,143,150,164,168,172,165,150,150,156,147,106,90,85,61,33,36,30,35,48,45,41,47,48,71,104,132,153,160,163,162,152,153,150,151,132,107,95,117,140,143,141,152,162,163,159,158,166,145,113,72,45,27,33,30,20,23,62,109,168,167,57,58,70,78,80,72,65,37,74,62,48,38,7,4,5,11,19,89,90,123,99,142,156,114,130,127,111,96,96,86,97,110,136,131,129,131,113,103,106,99,118,95,93,79,86,103,114,119,120,110,129,113,103,118,114,107,112,100,130,144,156,133,100,63,53,69,104,115,105,72,34,21,21,25,23,20,17,26,146,92,51,105,112,165,130,112,132,136,141,133,137,111,113,107,70,53,45,47,39,55,84,83,19,19,20,13,13,17,30,13,79,177,174,151,132,92,70,71,88,93,97,88,56,83,89,120,141,144,131,120,119,131,132,109,84,49,41,28,42,33,23,60,55,33,40,71,103,86,114,119,95,108,112,93,74,40,41,42,19,31,40,76,81,119,100,119,121,87,61,36,52,47,26,25,19,36,25,45,104,162
159,162,161,133,101,96,53,36,12,7,7,9,40,80,97,108,115,142,152,168,167,143,128,117,93,76,64,48,32,20,27,33,38,49,53,47,52,63,67,71,80,85,99,111,136,165,166,174,180,173,161,144,152,162,159,160,163,152,154,142,138,144,156,154,144,113,85,49,31,34,38,38,27,44,100,157,122,56,89,95,63,89,67,85,102,103,100,60,11,11,5,7,11,57,68,106,132,126,115,108,121,129,98,88,109,111,107,99,120,110,98,95,97,107,105,96,92,86,71,55,70,136,133,152,142,128,130,95,93,93,87,97,105,117,139,129,145,145,111,72,60,107,110,111,133,140,129,105,61,37,35,33,33,33,135,143,117,109,125,126,104,129,132,163,168,160,164,157,153,104,79,89,88,66,55,49,47,52,58,35,30,16,16,12,17,20,37,145,180,170,151,140,139,139,126,123,119,100,38,87,76,99,126,141,135,131,136,119,112,87,123,124,116,111,74,47,58,63,52,40,70,80,75,85,99,115,129,109,104,101,106,78,60,54,59,59,36,45,74,65,113,110,116,121,69,39,39,43,26,86,44,37,46,26,49,93
70,114,150,158,151,136,103,85,45,13,16,17,16,27,49,73,90,98,117,113,98,98,85,64,48,22,21,38,39,4,17,42,48,45,46,71,92,107,115,119,124,120,125,141,113,126,137,161,166,167,161,156,159,164,159,158,162,159,131,115,115,126,134,132,124,106,100,86,47,28,34,39,42,49,49,68,118,120,113,95,74,96,75,114,101,97,92,40,47,44,19,7,3,28,98,88,111,129,129,127,125,93,98,93,108,108,98,102,116,127,134,126,120,110,106,76,96,69,76,67,57,147,146,171,162,139,126,121,82,65,61,80,97,120,128,118,118,116,106,108,117,127,128,112,111,95,104,133,135,86,50,47,47,51,120,167,149,150,112,111,101,128,155,159,169,177,175,167,162,111,94,72,96,78,62,55,37,30,49,52,33,27,20,27,31,25,71,127,181,172,171,148,148,158,151,139,145,140,76,47,79,104,141,150,156,155,144,109,110,121,118,105,110,113,125,104,81,69,72,81,74,85,88,77,104,125,122,119,121,116,126,119,84,51,44,66,38,36,47,153,98,89,107,103,54,33,30,45,93,83,51,43,21,33,42,48
34,55,93,120,131,122,146,143,106,76,50,27,25,19,7,20,57,63,58,39,35,32,46,42,33,9,6,44,52,10,8,16,31,47,43,55,113,128,141,153,158,163,160,125,120,128,130,116,159,156,159,163,157,145,155,156,161,159,136,115,117,113,111,126,144,129,118,105,115,98,56,40,35,39,37,49,39,67,125,122,139,137,129,135,83,74,79,48,69,33,27,18,6,25,96,77,120,150,154,117,92,55,78,113,121,100,121,114,115,114,134,152,143,127,106,85,122,128,70,74,57,80,110,109,141,162,159,144,106,98,76,79,91,119,130,127,112,80,73,95,118,124,134,141,121,125,132,135,140,142,117,73,58,63,77,130,154,143,119,110,85,103,142,157,175,188,170,170,133,120,126,92,70,48,64,66,85,51,38,42,33,40,35,27,22,19,49,87,137,166,161,167,161,170,140,142,154,150,119,86,72,109,122,126,147,148,154,140,111,73,82,126,140,132,119,131,119,105,104,93,97,90,82,96,121,107,125,139,135,132,140,144,115,112,82,75,66,38,60,100,172,74,73,65,39,69,63,85,92,81,53,38,48,29,45,25
26,34,57,41,61,84,95,120,141,143,121,94,70,54,52,21,45,26,5,9,4,3,9,16,13,6,15,37,53,7,5,8,16,27,50,90,124,139,131,119,143,153,142,131,121,133,134,130,143,141,148,156,156,145,143,148,126,138,162,154,146,148,144,134,120,100,89,78,73,78,130,103,55,47,41,63,44,39,41,44,72,133,162,156,83,90,63,56,43,33,13,11,21,40,116,118,133,137,144,160,86,67,61,106,132,112,105,101,121,141,152,152,142,132,117,122,128,162,151,92,93,116,104,92,116,155,155,169,173,160,111,88,108,115,140,137,132,113,112,104,106,120,134,132,129,130,140,142,145,158,156,117,61,57,69,94,147,144,149,108,84,102,121,122,169,190,173,161,136,130,99,66,58,60,52,58,50,81,53,51,42,41,30,36,36,34,31,57,106,161,163,172,172,173,151,147,141,141,138,94,68,97,96,110,125,138,161,103,56,36,51,64,105,126,148,137,135,126,84,102,105,103,136,148,149,128,124,115,158,163,153,156,107,107,105,104,87,48,76,176,153,89,103,107,109,92,92,82,72,32,79,94,64,48,41,29
39,60,39,44,45,56,76,86,111,142,152,147,147,139,121,97,54,32,22,22,11,7,9,9,6,7,37,61,54,64,56,78,94,73,84,108,105,167,145,126,126,131,122,117,139,129,129,138,134,137,136,144,147,130,130,138,126,130,146,147,146,137,140,119,67,37,31,29,34,39,55,77,42,68,74,56,41,36,38,46,57,128,159,163,130,99,69,79,85,82,54,50,57,68,131,120,121,139,146,153,151,120,81,96,112,112,98,92,90,103,131,115,108,96,90,109,133,162,155,164,137,122,70,59,113,128,160,159,172,171,146,120,135,146,160,167,148,137,135,142,142,155,152,141,136,140,147,144,161,165,153,157,134,120,120,148,151,139,153,81,60,80,94,97,164,168,158,152,129,108,116,95,86,67,68,49,48,31,43,42,57,60,60,55,46,27,19,58,90,161,178,178,175,178,164,160,158,158,152,150,140,153,151,148,116,89,96,64,20,21,40,51,86,135,149,161,154,133,123,106,78,132,148,150,143,121,113,118,175,161,136,122,115,81,95,119,109,122,157,165,107,69,85,76,58,33,27,42,56,71,70,47,48,35,29,26
80,66,49,42,45,37,34,39,68,93,100,118,120,137,137,148,125,128,99,50,26,38,39,27,44,85,116,118,114,114,125,141,139,122,88,90,122,175,176,168,146,133,97,116,115,104,112,128,131,133,137,125,101,118,134,134,125,109,124,115,79,79,54,35,23,34,38,37,34,42,36,56,89,96,73,61,54,45,63,57,68,138,137,137,134,120,93,76,111,147,110,86,38,67,126,123,105,104,135,141,147,147,128,123,129,119,120,100,104,100,107,107,107,97,60,61,105,149,172,161,125,128,117,94,115,137,134,163,175,164,156,153,160,183,176,173,178,168,176,177,180,176,177,175,164,156,166,165,175,165,149,175,171,171,162,156,144,136,124,105,81,81,107,121,144,143,133,149,129,147,118,112,123,137,151,166,165,154,144,124,110,105,95,86,56,47,39,80,128,178,186,200,200,194,193,186,184,173,177,174,164,142,137,134,100,87,83,64,72,58,61,47,68,87,121,146,145,135,101,90,116,131,146,147,127,118,126,113,131,149,143,156,103,71,90,139,140,135,138,98,71,43,32,21,13,19,62,62,54,58,58,66,72,76,76,81
93,94,83,82,65,66,53,38,49,60,69,83,90,106,110,139,139,151,160,154,143,132,119,118,143,147,136,131,127,102,88,137,147,148,102,67,110,132,158,139,134,111,114,87,117,111,92,91,97,80,93,91,95,76,67,61,22,26,75,58,24,41,30,39,40,45,51,65,57,85,112,114,90,90,122,118,113,104,95,88,96,136,130,118,82,63,54,59,102,123,113,88,57,71,112,111,97,81,99,134,145,146,142,121,141,138,139,145,141,143,135,133,111,72,53,31,41,89,120,153,169,162,159,145,164,169,176,178,178,150,146,176,184,177,162,170,168,121,116,103,106,127,160,173,175,176,178,172,174,170,162,177,182,178,170,167,168,164,146,106,61,69,96,100,133,165,159,149,143,151,138,136,150,173,185,180,181,174,160,155,158,161,149,114,99,98,118,154,178,193,208,207,201,205,203,196,184,175,159,145,134,114,114,111,82,90,70,63,124,111,82,59,91,77,118,127,112,81,75,109,108,125,121,106,120,136,93,49,36,73,120,160,157,141,114,148,127,116,99,77,50,48,56,72,110,119,77,34,54,32,77,109,99,93,83,80
111,115,130,133,149,152,131,105,109,104,81,66,79,111,77,82,104,137,142,138,132,146,165,159,162,170,170,180,172,140,120,146,142,155,167,135,136,145,173,135,139,63,67,90,136,145,117,97,93,89,69,62,75,87,90,47,27,53,69,85,73,74,57,61,63,101,84,82,84,94,90,109,116,151,163,127,107,125,130,132,140,138,113,45,39,56,66,71,119,116,88,71,50,34,43,83,83,95,100,100,127,154,161,156,158,153,163,160,160,155,155,118,121,110,59,45,46,56,67,96,127,135,138,151,159,165,175,183,185,177,168,171,166,146,108,98,94,82,75,66,60,78,112,132,154,170,181,190,187,175,160,180,182,184,182,185,183,180,168,144,70,78,98,90,150,176,170,171,163,150,145,166,176,181,178,181,187,185,167,147,150,157,156,157,163,159,180,198,202,206,205,204,209,209,208,201,192,188,179,160,142,134,133,120,117,103,95,103,132,100,102,97,86,95,109,102,88,78,80,65,77,70,65,93,85,35,31,30,51,31,59,81,94,97,126,140,128,117,111,106,97,88,92,89,101,152,97,79,68,73,81,78,79,102,104,100
129,117,126,137,146,166,170,137,114,97,93,60,93,137,135,66,72,99,125,156,159,167,176,173,173,186,190,176,175,157,152,146,146,155,159,179,177,157,171,146,61,50,50,42,77,98,64,36,62,89,98,95,39,22,18,71,81,88,80,88,102,95,87,56,85,87,96,128,130,119,112,116,123,143,157,168,164,156,162,155,145,110,113,68,62,49,51,50,76,85,103,99,81,72,53,56,79,112,121,131,124,127,150,157,166,157,150,136,118,95,83,68,102,128,123,86,36,36,43,51,81,115,129,131,142,154,157,163,163,145,127,111,100,94,90,85,70,62,50,55,46,54,81,85,79,87,103,157,166,172,176,180,185,188,186,189,202,203,190,159,114,90,78,78,143,158,155,168,175,187,179,178,187,178,192,202,208,209,205,188,181,184,187,185,188,197,203,201,202,200,201,203,202,198,197,194,189,185,177,141,135,151,146,148,162,140,140,98,101,131,145,126,129,149,139,109,63,86,102,99,93,54,59,58,37,29,30,29,30,25,33,62,108,135,138,137,141,148,173,171,132,124,90,97,81,41,86,94,81,69,39,53,69,97,131,139
114,115,140,128,143,142,129,81,64,53,52,54,53,63,118,117,68,37,60,105,139,140,137,143,152,192,191,171,140,135,126,127,144,143,125,123,77,93,133,116,50,60,26,13,11,17,7,5,6,5,18,33,52,68,78,80,104,96,82,83,76,72,61,26,12,37,56,108,111,125,125,147,124,131,142,150,152,152,146,140,134,123,147,163,140,134,97,77,45,49,69,73,87,95,80,51,54,47,73,84,89,86,93,115,140,144,142,75,38,72,106,114,122,166,148,109,67,56,55,56,61,74,89,103,113,120,126,128,124,123,112,94,87,84,87,71,43,40,40,33,35,51,71,102,75,99,80,129,132,156,163,171,166,173,183,196,208,196,164,119,100,72,61,64,102,122,143,156,184,192,177,189,205,205,207,202,203,206,206,206,206,207,207,205,207,204,200,194,195,195,195,190,186,187,185,188,170,146,119,94,65,75,125,129,130,144,139,107,113,134,151,153,155,185,199,161,92,78,101,92,136,98,103,91,91,93,91,83,104,160,175,171,168,160,162,165,190,199,201,186,142,110,79,86,64,47,78,127,157,126,58,58,61,64,107,100
88,103,117,131,132,129,130,112,64,51,37,34,30,39,57,77,69,53,21,26,53,63,83,98,104,129,157,142,136,106,106,97,63,41,30,58,70,107,129,78,57,61,6,1,4,9,5,5,4,11,33,44,84,116,129,109,83,95,86,41,3,2,23,30,28,33,56,50,60,79,101,121,138,139,136,133,119,107,128,129,119,68,44,58,80,119,69,28,13,22,26,36,58,67,50,41,47,56,51,57,63,61,67,79,79,52,53,21,57,96,103,88,70,121,170,155,142,115,80,62,55,56,58,61,64,65,52,58,62,61,64,67,65,63,53,40,37,43,48,49,67,86,77,63,76,75,102,130,165,174,181,184,144,144,146,145,174,177,167,141,136,133,126,113,94,151,185,182,189,191,181,188,205,207,203,187,196,196,199,200,199,199,199,199,200,184,193,194,193,188,164,155,158,157,150,134,128,121,85,66,79,92,115,125,94,86,132,122,115,131,155,162,170,163,166,169,134,133,134,132,87,63,64,96,134,137,137,140,144,146,145,161,173,170,168,179,171,182,188,184,165,130,79,62,58,76,86,106,142,136,85,79,100,98,78,77
72,73,84,91,94,84,78,71,62,40,21,16,19,32,63,90,55,35,20,13,7,4,14,33,53,79,107,95,122,111,88,45,17,3,12,19,43,119,100,15,65,108,33,0,2,1,1,4,34,70,108,113,107,76,51,23,15,6,10,20,1,4,1,1,19,36,50,55,57,71,73,88,92,107,122,92,87,66,53,29,21,33,22,31,25,16,22,20,26,43,42,43,46,49,52,51,39,40,44,46,47,48,49,44,35,34,30,44,68,82,94,72,50,56,100,126,145,149,145,118,97,68,43,34,31,28,27,36,41,37,34,34,34,43,63,77,77,77,77,80,80,77,78,92,93,102,109,132,143,159,171,165,157,164,167,168,179,172,163,172,157,150,140,126,95,128,165,158,150,158,187,183,197,205,203,204,204,199,195,202,193,172,151,153,177,166,176,181,193,172,153,152,148,124,101,106,111,110,106,105,131,141,150,160,160,146,143,151,166,174,159,168,166,160,155,156,155,147,143,136,141,138,119,104,111,121,115,105,113,129,127,126,133,131,139,160,142,132,124,117,104,95,88,83,73,81,80,73,67,77,75,72,68,65,66,68
50,48,55,59,52,41,33,27,17,10,6,14,17,26,70,46,8,3,1,1,0,0,0,1,3,11,25,33,48,49,71,17,0,0,0,1,7,63,69,3,52,79,62,11,4,5,9,5,24,100,93,27,11,4,3,1,0,0,0,0,6,10,2,2,26,50,47,52,73,74,66,64,84,90,97,61,41,29,22,12,29,85,53,40,41,35,33,31,31,37,41,53,45,51,59,37,34,35,33,32,30,26,22,16,30,38,23,25,33,36,46,53,41,33,29,81,100,127,133,131,122,120,115,78,61,52,25,37,33,40,46,52,68,86,142,145,156,164,173,148,131,128,122,121,124,113,112,127,141,150,162,169,171,173,175,177,178,175,170,163,159,159,146,124,124,142,163,171,171,175,197,200,189,194,189,194,200,186,197,206,179,167,157,166,164,168,166,178,183,183,182,172,164,172,162,147,131,129,127,129,152,159,160,167,166,159,160,151,167,181,169,168,157,151,156,138,139,160,159,149,126,126,138,153,154,156,150,151,151,150,153,154,150,141,131,126,122,128,130,125,116,104,129,99,79,51,36,35,36,34,39,45,52,58,47,50
29,28,27,31,35,36,33,28,17,12,10,23,22,26,49,51,21,2,1,0,0,0,5,5,6,7,4,3,2,3,25,34,2,0,6,3,5,4,9,8,20,138,104,30,35,28,12,38,17,11,2,3,4,6,3,4,0,0,1,13,18,2,14,14,20,39,39,39,81,68,88,94,75,48,51,38,19,4,5,17,45,35,25,35,66,51,49,50,41,35,20,27,65,88,98,81,24,22,30,27,21,13,11,11,14,15,12,9,10,14,23,33,32,27,21,37,86,76,60,63,87,111,138,148,142,140,127,116,129,129,136,138,156,173,174,184,185,184,182,169,155,152,160,158,151,145,158,161,170,171,171,176,181,183,184,184,181,177,171,168,169,168,161,162,161,162,165,168,171,171,175,177,183,190,161,147,152,164,187,144,139,161,173,178,174,176,185,178,171,173,173,171,168,168,166,166,165,161,159,167,174,177,181,178,172,169,171,166,167,168,164,163,162,161,160,160,159,160,162,166,165,160,155,149,147,141,146,146,144,144,146,147,146,149,150,156,161,163,164,166,159,126,101,104,110,108,94,92,56,21,20,20,39,39,32,31
16,19,22,24,30,36,38,36,31,20,13,32,76,60,58,115,126,82,40,39,39,13,8,16,17,11,6,8,7,29,68,24,1,0,15,82,128,84,11,25,74,160,166,142,133,85,84,84,77,53,63,59,48,14,8,3,10,16,16,28,22,10,14,50,22,25,70,59,39,54,53,52,38,34,16,10,11,3,5,19,59,65,29,42,52,32,26,28,19,17,22,30,59,48,83,77,36,22,25,25,21,15,11,8,10,11,12,9,9,9,14,20,24,14,31,54,76,74,57,75,70,92,119,145,165,151,139,152,165,172,181,186,187,188,191,193,178,168,171,175,166,171,174,182,189,178,162,173,178,178,178,182,185,187,184,178,176,172,168,166,167,169,171,174,177,179,180,179,175,172,169,163,157,136,103,56,74,106,79,112,136,148,168,173,177,178,180,178,178,178,179,180,180,181,181,180,180,184,184,184,187,189,192,191,192,187,178,174,175,172,172,172,172,170,169,168,168,168,168,166,168,169,171,170,172,171,169,168,166,165,166,166,168,172,176,179,180,179,181,179,177,167,131,146,160,164,140,125,105,38,17,15,19,21,22,22
13,18,22,31,38,44,43,40,32,24,16,27,68,70,29,31,40,76,58,33,42,37,15,8,2,1,0,0,25,58,35,25,15,69,127,153,149,157,144,117,159,173,180,181,185,181,174,161,164,130,110,90,83,94,118,106,98,111,121,119,54,36,29,11,29,104,91,30,50,95,71,40,40,31,28,20,14,11,13,33,47,26,27,33,23,14,9,6,10,22,43,53,60,68,118,105,77,28,21,19,15,12,9,10,20,13,12,19,20,19,54,49,41,71,111,92,71,57,78,98,112,132,141,144,169,176,184,183,183,187,190,194,197,193,191,188,183,183,180,182,181,181,187,187,187,185,180,182,180,184,182,181,181,184,186,184,183,184,187,187,189,190,191,191,190,189,185,182,179,177,169,159,143,125,86,61,85,96,101,128,149,161,174,178,181,182,184,186,188,189,191,192,194,196,197,198,199,200,199,199,199,199,199,200,201,205,206,208,207,206,207,205,206,205,201,198,197,198,197,195,195,194,195,193,192,192,194,193,193,194,196,196,196,196,194,192,190,186,183,183,182,180,172,126,108,109,110,118,69,29,22,14,14,14,13,14
22,25,31,42,46,44,41,37,30,28,29,47,68,67,42,32,14,83,91,63,9,19,7,11,9,3,21,79,161,163,130,62,34,81,160,171,164,180,185,188,192,187,182,190,194,195,192,194,186,151,152,153,159,107,53,42,79,139,156,158,150,146,159,171,139,153,138,73,94,104,106,91,135,157,152,64,35,46,42,39,38,35,31,26,22,20,13,6,30,25,25,30,27,19,71,99,140,106,57,27,20,22,11,13,10,8,5,3,6,37,99,112,105,85,91,71,86,99,124,147,169,183,186,186,193,197,194,194,195,196,196,196,197,197,196,197,196,192,193,193,193,193,194,195,196,196,196,197,196,194,195,196,192,191,193,195,198,198,200,201,202,201,200,200,199,199,195,193,188,184,178,172,165,159,157,158,158,158,163,167,173,181,186,190,193,194,196,199,200,201,203,203,203,204,206,208,209,209,209,210,210,209,208,208,209,210,211,214,215,217,219,221,221,221,222,223,224,223,221,216,214,214,213,213,210,206,208,204,203,201,201,200,200,199,198,196,192,189,186,181,169,141,103,74,39,35,24,33,32,27,16,13,12,13,15,20
45,34,32,31,30,27,25,22,20,22,25,36,57,39,76,60,9,150,188,152,114,129,125,90,89,67,41,134,123,187,196,189,55,96,126,147,157,129,115,109,112,109,88,75,64,64,60,54,55,37,20,16,48,18,15,40,44,143,180,169,163,177,190,188,168,133,94,103,116,126,111,114,114,138,117,116,114,75,48,32,31,34,36,30,21,22,31,48,74,44,18,11,9,7,27,108,143,113,59,42,47,58,41,16,13,18,26,46,73,84,97,106,117,127,129,115,113,153,181,191,193,196,196,198,198,199,198,199,199,199,200,201,202,205,205,204,206,207,205,205,207,206,206,205,205,207,207,206,204,203,205,207,208,210,210,210,211,212,212,212,213,214,215,216,215,214,212,210,206,202,199,193,189,185,182,183,186,188,191,192,195,196,197,198,200,204,206,208,210,212,214,215,218,218,219,220,221,221,221,220,221,222,222,220,220,219,220,222,223,224,225,227,229,229,230,230,230,228,222,216,213,211,208,207,207,205,205,205,204,204,205,206,206,207,208,207,205,204,201,196,189,158,95,110,47,38,61,40,19,16,11,9,9,13,22,33
127,131,99,72,57,49,34,25,18,27,15,15,24,30,60,83,26,25,116,192,183,169,151,103,131,177,204,196,184,156,176,186,147,115,110,103,94,101,114,127,129,118,113,97,58,37,17,23,66,132,140,139,133,110,94,106,132,146,145,145,132,108,96,99,79,55,47,86,125,129,123,136,130,120,89,71,63,86,79,40,28,37,47,28,25,37,82,121,92,34,14,11,10,8,16,44,59,55,43,64,113,99,59,50,93,108,119,133,128,138,161,170,183,187,185,188,191,195,197,200,200,200,201,202,203,202,202,203,205,205,203,203,203,202,204,205,207,208,210,210,210,209,208,208,207,210,212,213,214,215,219,221,222,222,223,226,229,232,235,236,233,231,230,229,228,226,225,222,220,217,214,210,207,205,202,202,202,202,203,203,203,201,206,209,211,214,216,219,221,223,226,225,226,225,225,225,227,225,224,223,223,222,224,227,221,222,221,221,220,221,222,222,222,221,222,221,221,221,218,214,212,209,206,204,205,206,207,207,208,210,211,212,212,212,212,211,210,208,205,203,195,155,90,103,98,86,95,128,131,65,18,31,48,77,106,110
143,146,140,123,109,102,99,91,88,88,92,70,48,41,43,66,70,64,49,85,145,151,144,150,182,178,170,191,194,196,193,191,184,167,183,169,165,156,130,140,149,146,135,57,43,57,57,39,51,67,67,57,76,108,91,73,42,24,21,21,19,18,15,16,20,48,52,50,62,93,90,67,71,53,54,68,92,113,68,56,45,69,52,87,71,92,114,101,96,50,11,11,12,13,21,23,13,11,12,23,100,140,137,122,112,103,86,70,86,91,110,123,133,142,157,171,181,186,191,193,194,197,200,204,205,205,206,205,205,205,206,207,207,207,206,205,205,206,207,208,209,208,211,212,213,212,213,215,216,218,220,222,225,225,227,229,231,234,236,239,242,242,242,241,241,239,237,236,234,233,231,228,221,220,221,211,212,222,226,224,225,225,222,221,219,220,221,222,224,225,227,228,228,225,223,222,218,213,210,207,204,203,204,204,206,207,211,211,213,211,208,204,205,205,206,209,209,211,211,207,205,202,201,199,199,200,200,201,203,204,205,206,205,203,202,201,200,198,188,154,130,107,103,75,101,124,138,97,74,27,8,13,23,62,82,113
151,158,155,149,138,137,132,131,135,139,139,124,111,102,105,109,119,127,156,167,179,169,159,143,152,148,137,154,153,125,131,124,147,165,154,167,169,175,181,188,180,175,162,114,80,67,51,39,37,19,14,7,6,7,3,1,1,2,6,7,11,14,25,50,74,73,57,63,66,49,35,34,33,35,46,74,100,100,55,16,21,36,55,57,50,58,68,83,73,50,27,25,11,13,13,8,4,5,7,10,9,10,17,37,66,97,114,108,116,123,141,142,129,141,150,171,182,188,195,199,201,200,199,199,201,200,199,199,200,200,203,203,204,205,205,204,204,203,203,202,202,203,203,203,204,204,205,205,205,206,208,210,210,214,216,218,219,219,217,214,219,223,222,223,232,235,236,231,236,239,240,240,240,240,236,235,233,230,237,240,238,235,235,233,231,230,228,226,225,223,222,221,220,220,216,213,210,209,204,202,202,199,195,189,191,191,190,194,192,197,195,193,189,192,195,195,198,197,199,198,197,195,194,192,192,192,192,193,194,195,196,196,196,192,181,180,182,178,174,138,91,70,108,161,174,172,159,152,149,135,113,84,48,96,138,143
151,151,154,159,147,146,154,161,164,167,168,168,166,156,149,138,145,160,165,139,145,142,161,154,179,171,152,137,109,88,101,105,141,167,195,204,201,206,208,200,173,164,177,192,189,175,138,90,47,21,4,1,0,0,1,9,42,58,54,76,102,125,138,151,126,114,94,75,60,50,43,41,41,40,48,66,86,89,88,60,23,19,12,13,32,35,51,47,23,10,9,10,11,10,7,11,11,7,10,13,16,22,24,32,53,79,89,104,136,156,165,173,166,171,179,182,191,196,198,200,201,204,205,205,205,206,208,208,207,209,210,212,214,215,214,212,211,210,210,209,206,203,200,199,198,198,198,199,200,200,201,202,203,204,204,204,204,206,207,208,208,210,207,201,209,210,214,212,212,213,219,227,229,231,232,234,234,234,232,230,228,226,223,220,219,217,218,213,213,209,210,210,210,209,207,207,205,203,203,201,199,198,197,193,187,189,195,192,190,182,181,189,194,194,195,193,192,189,187,192,194,193,193,190,189,191,192,193,193,194,196,198,199,194,188,184,184,167,140,138,130,82,73,92,110,98,127,146,154,162,162,154,147,131,118,136
144,132,117,89,89,84,81,91,94,94,102,114,121,123,121,123,123,121,121,113,112,121,136,137,119,108,93,96,96,90,91,80,78,83,90,94,100,101,101,103,106,100,78,64,65,51,26,7,1,1,2,8,18,30,48,80,122,150,168,171,171,170,161,150,132,113,90,76,69,64,62,62,62,61,59,57,57,61,64,41,17,8,11,19,33,52,54,29,37,64,83,53,26,26,24,18,7,7,19,46,62,63,86,101,115,125,119,105,110,130,141,143,153,164,177,184,188,192,193,195,198,201,204,207,208,208,212,214,215,215,216,215,217,217,217,218,219,218,217,214,212,210,206,202,199,198,197,198,197,196,196,197,197,199,199,200,202,206,205,208,211,208,211,207,208,208,207,206,205,206,208,208,210,208,207,209,209,208,208,207,206,205,204,205,205,204,205,204,204,203,202,201,201,200,200,200,199,198,196,195,192,192,193,191,188,189,192,183,175,184,192,195,193,191,190,189,185,180,181,184,187,194,194,194,195,195,196,196,196,197,198,198,198,197,196,194,192,184,171,154,155,165,152,139,144,143,107,82,52,50,58,78,112,125,138,147
80,32,18,35,53,73,63,43,44,36,17,10,6,4,6,8,6,6,11,11,11,10,5,3,4,3,1,0,0,0,0,1,0,0,1,2,2,4,5,9,1,3,5,6,5,5,8,11,15,20,23,24,22,16,11,12,19,35,40,80,130,148,169,157,146,134,127,104,90,99,114,132,135,120,97,86,63,59,70,79,72,58,62,70,66,59,55,54,51,41,29,43,68,71,55,46,46,37,34,51,61,48,72,81,102,134,139,134,134,144,148,140,135,144,164,181,191,193,192,194,195,198,200,202,203,204,204,205,208,210,212,213,214,215,215,215,214,213,212,209,207,206,203,201,198,197,198,196,196,196,196,197,197,196,196,199,203,204,207,207,210,210,208,209,207,206,207,206,206,205,204,204,204,204,205,204,204,204,204,203,203,202,202,202,201,201,201,200,200,199,198,197,196,196,194,192,194,193,190,192,190,189,186,193,193,194,195,195,197,198,198,199,197,198,199,199,199,199,198,199,200,199,199,200,200,200,201,201,201,201,201,201,200,200,199,198,197,195,194,193,190,187,176,165,129,119,98,62,84,116,122,131,138,109,98,84
149,157,160,157,159,160,146,130,129,109,87,63,66,72,55,58,69,64,45,26,30,49,58,55,55,57,61,72,78,87,99,102,104,96,92,93,91,84,70,74,79,75,81,90,94,97,103,106,111,120,128,128,139,159,172,171,175,183,182,179,173,168,167,165,162,160,160,163,161,158,155,152,148,145,137,126,121,123,125,129,135,143,148,151,153,151,147,146,121,79,55,65,77,93,102,107,94,76,66,85,104,111,110,106,99,97,91,82,93,121,123,123,126,128,130,146,172,185,187,188,191,192,192,193,192,194,196,198,199,199,197,197,198,199,199,201,203,201,200,199,199,199,199,197,198,198,198,198,197,197,196,196,193,194,196,197,197,199,199,201,202,203,203,202,202,201,200,200,200,199,199,199,199,199,197,195,192,192,193,194,194,196,198,197,196,196,196,198,197,195,193,192,192,193,193,193,193,191,194,193,186,181,191,196,201,202,201,200,200,202,203,204,204,203,203,203,203,203,204,205,204,203,204,205,204,204,204,204,204,203,202,202,202,201,201,199,199,197,198,195,194,192,188,183,175,172,171,169,168,174,169,149,138,138,144,148
204,204,202,202,200,201,200,196,194,195,194,192,191,189,185,184,180,174,167,160,157,159,174,180,185,188,188,186,186,188,189,191,194,195,197,198,198,199,199,200,200,201,202,202,203,204,204,203,203,203,202,201,202,201,201,200,199,199,199,198,198,197,196,196,195,195,194,194,193,194,193,194,194,194,195,196,196,196,197,197,197,197,196,197,197,196,196,195,194,192,185,171,161,139,171,181,161,150,147,142,137,125,127,150,169,174,158,145,137,134,133,127,128,124,112,105,100,98,97,102,108,119,120,116,117,124,132,141,158,163,160,159,161,161,165,169,173,175,181,183,182,181,180,180,179,179,180,179,177,177,176,177,174,171,170,167,166,167,165,166,165,161,160,158,154,149,146,145,148,152,154,158,156,152,146,145,146,148,151,156,160,160,163,163,162,161,162,162,163,163,169,175,181,181,179,178,181,185,188,192,195,200,203,205,206,205,206,207,210,211,211,212,211,213,214,216,216,216,215,215,215,215,214,213,213,212,212,212,211,211,210,210,209,209,209,209,208,206,209,209,208,208,208,208,208,206,206,206,205,205,206,207,208,208,208,206
220,221,219,219,220,220,220,219,220,220,220,219,220,220,220,219,220,219,219,219,218,218,217,218,218,218,218,218,218,217,217,217,217,217,217,217,216,216,216,217,216,216,215,215,214,215,215,215,215,215,215,214,215,215,215,214,214,213,213,214,214,214,214,213,213,212,212,212,211,211,211,211,211,210,210,210,209,209,209,210,209,209,209,209,209,208,208,208,207,207,207,207,206,206,206,206,206,206,205,205,205,204,204,202,201,200,199,199,199,200,197,197,199,200,200,199,198,198,196,194,193,191,189,186,183,182,179,173,171,169,167,166,164,161,160,161,163,164,165,167,170,172,175,174,175,176,175,174,173,169,165,164,164,164,164,165,168,168,170,174,178,179,179,179,182,186,187,187,188,190,190,189,190,190,191,193,194,194,194,195,195,196,195,194,195,194,195,197,198,200,201,201,201,202,202,202,203,204,205,206,208,209,210,211,211,212,213,213,214,214,214,215,215,214,214,214,214,215,215,216,216,216,217,216,217,217,217,217,217,217,218,218,218,219,219,218,218,219,221,221,221,220,220,221,221,221,222,221,221,221,221,221,221,221,220,221
