24,23,23,23,23,23,24,24,23,23,23,23,23,24,23,24,24,23,24,23,24,23,23,23,23,23,24,23,23,23,23,23,24,23,23,24,23,23,24,24,23,23,23,23,24,23,23,24,23,23,23,23,23,23,23,23,24,23,23,23,23,24,24,23,23,23,24,24,24,23,24,24,23,23,24,24,23,23,24,24,23,23,23,24,24,24,23,23,23,23,24,23,23,23,23,23,23,23,23,23,23,23,24,23,24,23,24,23,23,23,24,23,23,23,24,23,24,23,23,23,23,23,24,23,24,23,23,24,23,24,23,23,24,23,23,23,24,23,24,23,24,23,23,24,24,24,23,24,24,23,23,23,23,23,24,24,24,23,23,24,23,24,23,24,23,24,23,23,24,24,23,24,23,23,23,23,24,24,23,24,24,23,23,23,24,23,23,23,23,23,23,23,23,23,24,23,23,23,24,23,24,23,24,23,24,24,24,23,24,23,24,23,24,23,23,24,24,23,23,24,23,24,23,24,24,23,23,23,23,24,23,23,23,23,23,24,24,24,24,23,23,24,23,23,23,23,23,23,24,23,24,24,23,24,23,23
23,24,24,24,23,23,23,23,24,23,23,23,24,24,23,24,23,24,24,23,23,24,24,23,24,23,24,23,23,24,23,23,23,24,24,23,24,24,23,23,24,23,24,24,24,23,23,23,23,24,24,23,23,24,24,23,23,23,23,23,23,23,23,23,24,24,24,24,23,23,23,24,23,23,24,24,24,24,23,23,23,24,24,24,24,23,23,23,23,23,23,24,24,23,23,23,23,23,23,23,24,23,23,24,24,23,23,23,23,23,23,23,23,23,24,23,23,23,23,23,23,24,23,23,23,24,23,24,24,23,23,23,24,23,23,23,23,23,24,23,24,23,23,24,24,23,24,23,24,23,24,24,24,24,23,23,23,23,24,24,23,24,23,23,24,23,23,23,23,23,23,23,23,24,23,23,24,24,23,23,23,23,24,24,23,24,23,23,23,23,23,24,23,23,24,24,23,24,23,23,24,23,24,23,23,24,23,23,23,23,24,23,24,24,24,23,24,23,23,24,24,24,23,23,23,24,23,24,23,24,24,23,24,23,23,24,24,23,24,23,24,23,23,23,23,23,24,23,23,23,23,24,23,23,23,23
23,23,23,23,24,24,24,23,23,23,23,23,23,23,24,24,23,24,24,23,24,24,23,24,23,24,23,23,23,23,23,23,23,24,24,24,24,23,23,23,24,23,24,23,23,23,23,24,23,24,23,23,23,23,23,23,23,24,23,24,23,23,24,23,23,24,24,24,23,23,23,23,24,24,24,24,24,24,24,24,24,23,23,23,23,23,23,23,24,24,24,24,23,23,23,24,24,24,24,25,24,24,26,28,25,26,26,26,25,25,24,24,24,24,23,24,24,23,24,23,24,23,24,23,23,23,23,23,23,23,23,24,24,24,23,23,23,24,23,24,24,23,24,24,24,23,23,23,24,24,23,24,24,23,24,24,24,23,23,24,24,23,24,24,23,23,24,24,23,23,23,24,24,24,23,23,23,23,23,24,24,24,23,24,24,24,24,23,23,24,23,23,23,24,24,24,24,24,23,24,24,23,24,23,23,23,24,24,23,23,23,24,23,24,23,24,23,23,23,23,23,24,23,23,23,24,24,23,24,24,23,23,24,24,23,24,23,23,23,23,23,23,23,23,23,24,24,23,23,24,23,23,24,23,23,23
23,23,23,24,23,23,24,24,23,24,24,23,23,23,23,23,24,23,23,24,23,23,23,24,23,24,23,24,23,23,24,23,23,23,24,23,23,24,24,23,23,23,24,24,24,23,23,23,24,24,23,23,24,23,23,24,24,23,23,23,23,23,24,24,25,28,30,34,37,39,45,49,55,58,56,58,53,52,45,40,42,38,33,28,24,24,26,29,32,29,28,26,25,31,31,29,28,32,39,44,45,43,41,40,40,33,36,40,39,32,26,25,25,23,23,23,23,23,23,23,23,23,23,23,23,23,24,24,24,24,23,23,24,23,23,24,24,24,24,24,23,23,23,24,23,24,23,23,24,24,23,23,24,23,23,24,23,23,23,23,23,23,23,23,23,24,24,24,23,24,24,23,24,24,23,23,23,23,23,23,23,23,23,23,24,23,23,24,24,23,23,24,23,23,23,24,23,23,23,23,23,23,23,23,23,23,23,23,23,23,23,24,23,24,23,24,24,23,23,24,23,24,23,23,24,24,24,24,24,23,23,23,23,24,23,24,23,24,24,24,24,24,24,24,24,24,23,23,23,24,24,24,23,24,24,23
24,24,23,23,24,23,23,24,24,23,24,23,23,24,23,24,23,24,23,23,23,24,24,24,24,23,23,23,23,23,23,23,23,24,24,23,24,23,23,23,24,23,23,23,23,23,24,24,24,23,23,24,23,23,23,23,23,23,23,24,27,35,38,28,27,30,30,34,37,41,45,43,46,52,61,64,57,48,44,35,28,29,30,30,32,40,52,53,54,56,59,62,63,61,59,61,63,68,75,80,80,74,66,59,53,49,50,49,46,42,40,37,39,42,38,29,24,24,23,23,24,23,24,24,24,24,24,23,24,24,23,24,24,23,23,24,23,24,24,24,23,24,25,24,24,24,24,24,24,24,24,24,23,24,23,23,23,23,23,24,24,24,25,25,24,24,24,25,27,26,25,26,24,25,24,24,23,23,23,24,23,24,24,23,24,23,24,24,24,24,24,24,24,24,27,33,29,24,23,23,23,23,23,24,23,23,24,24,24,23,24,24,23,24,24,24,24,24,23,23,23,24,23,23,24,24,23,23,23,24,24,24,23,24,23,23,24,23,23,23,23,23,23,23,23,23,23,23,23,23,23,23,23,23,24,23
24,24,24,24,24,23,23,24,23,23,23,23,24,24,23,24,23,23,23,23,23,23,24,23,23,24,23,23,23,23,23,24,23,23,24,23,24,23,24,23,24,23,23,23,24,24,24,24,23,24,23,23,23,24,24,24,23,24,24,24,27,36,47,53,50,36,29,29,32,33,42,56,52,47,38,33,29,26,23,24,25,27,33,42,49,55,63,72,78,81,84,88,89,90,91,93,95,98,99,97,95,94,91,87,81,74,68,63,60,57,54,52,42,31,26,24,23,23,24,23,23,23,23,24,23,23,23,23,23,24,23,24,24,24,23,24,31,36,35,35,42,32,30,29,30,32,27,24,24,24,24,23,23,23,23,23,23,24,24,23,24,23,23,24,24,24,23,23,23,23,23,24,23,23,23,23,23,24,24,23,23,23,24,23,23,24,23,23,24,23,24,23,23,24,24,28,30,31,35,24,27,26,25,24,23,23,23,24,23,23,24,23,23,24,23,23,24,24,23,23,23,23,23,23,23,24,24,23,23,24,23,23,23,24,24,23,23,23,24,23,24,23,23,23,23,23,23,24,23,23,23,23,23,24,24,24
24,23,23,23,23,24,23,23,23,23,23,23,24,23,23,23,23,23,24,23,23,23,23,23,23,24,23,24,23,23,23,23,23,24,23,23,23,23,24,24,23,24,23,24,23,23,23,24,24,24,24,24,24,24,24,25,25,24,24,24,24,24,26,29,27,25,29,31,34,34,57,55,42,34,27,24,25,32,40,48,49,55,61,62,65,74,84,93,97,98,100,100,100,102,104,105,106,106,105,104,101,100,97,94,91,88,84,81,76,70,61,47,28,26,24,23,24,23,23,23,24,23,23,24,23,24,24,23,23,23,24,24,23,24,23,24,24,27,28,34,36,27,24,29,26,24,23,23,23,24,23,23,23,24,23,24,24,23,24,24,24,23,23,24,24,23,24,23,24,23,23,23,24,23,24,23,24,23,24,23,24,23,24,23,24,24,23,23,23,23,23,23,24,23,23,24,23,24,23,25,27,28,27,24,23,23,23,23,24,23,24,23,23,24,23,23,24,24,23,23,23,24,23,23,23,24,23,24,23,23,24,23,24,23,24,24,24,24,24,23,23,23,24,23,23,23,24,23,23,24,24,23,24,23,23,24
23,23,23,23,23,23,23,23,24,23,23,23,24,23,23,24,24,23,24,23,23,23,24,23,23,23,23,23,23,23,23,23,23,23,24,23,23,23,23,23,24,24,25,24,25,25,25,25,24,24,25,24,24,24,24,24,25,25,25,25,27,25,26,26,26,28,34,36,33,32,36,34,26,23,23,23,24,25,30,39,41,45,49,51,48,49,56,64,71,80,86,90,94,100,104,106,108,109,109,107,106,105,103,100,99,98,96,93,92,91,65,37,28,29,24,23,23,23,23,23,23,23,23,23,24,24,24,23,23,24,24,24,24,24,24,23,23,23,25,28,25,23,24,23,23,23,24,23,23,23,23,23,23,24,23,23,24,24,23,24,24,24,24,23,23,23,23,24,23,23,23,25,27,28,29,30,28,23,23,24,23,24,23,23,24,24,24,24,23,24,23,24,24,23,24,24,24,24,24,24,25,28,28,28,28,29,28,24,24,23,24,23,24,24,23,24,23,24,23,23,23,23,24,23,23,23,24,24,23,23,23,23,23,23,24,23,24,23,24,23,24,23,23,23,23,23,23,24,24,23,23,24,23,23,24,23
24,24,24,23,24,23,23,23,24,23,24,23,24,23,23,24,24,23,24,23,23,23,23,24,23,24,23,23,24,23,23,23,23,23,23,24,24,24,24,24,24,24,23,24,24,27,30,30,27,25,25,26,25,24,24,24,24,26,24,24,26,25,26,30,30,31,32,36,43,56,40,25,24,23,23,23,24,23,23,23,23,23,23,23,24,23,26,40,53,66,79,87,90,97,104,110,115,118,118,116,114,112,110,108,106,104,100,95,89,87,83,70,49,35,24,23,23,24,24,23,24,23,23,23,23,23,23,23,24,24,23,24,23,23,23,23,24,24,24,24,23,24,23,24,24,24,23,23,24,23,23,23,23,23,24,24,23,24,24,24,23,23,24,23,24,23,23,24,31,37,37,33,28,25,24,24,23,24,23,24,23,24,23,23,24,23,23,24,23,24,25,26,27,29,32,30,29,29,28,27,29,29,29,31,34,36,36,30,25,23,23,23,24,23,23,23,24,24,23,23,23,24,24,24,24,24,26,24,24,24,24,23,24,24,24,24,24,24,23,24,23,23,23,23,24,23,23,23,23,23,23,23,23,24,24,23
24,23,23,23,23,23,23,23,23,23,23,23,24,23,23,23,23,24,23,23,24,24,23,23,24,23,24,24,23,23,24,24,24,23,24,24,23,24,23,24,27,29,28,28,29,25,24,24,24,23,24,24,24,24,24,23,24,26,25,24,28,30,29,25,24,27,28,25,28,31,28,34,33,25,23,23,23,23,24,23,23,23,23,23,23,23,23,24,35,66,82,91,96,100,109,116,119,121,123,124,124,123,120,115,111,107,101,93,75,62,47,46,35,28,24,24,23,23,23,24,23,23,24,23,23,23,24,23,24,23,23,24,23,23,24,24,23,24,23,24,24,24,23,24,23,24,23,24,23,24,24,23,23,23,23,23,24,23,23,23,23,23,23,23,23,23,26,32,32,25,23,24,23,24,23,23,23,23,24,23,24,23,23,24,24,24,25,25,25,25,25,27,27,28,29,30,29,27,26,26,26,26,26,26,25,25,24,24,24,24,24,24,24,24,23,24,24,23,23,23,23,23,23,24,24,24,23,23,24,24,24,23,23,23,24,24,23,24,24,23,23,23,24,23,24,24,23,24,23,23,23,23,24,23,24,24
23,23,23,23,23,23,24,24,24,23,23,23,24,23,23,23,23,23,23,24,23,23,24,24,23,24,23,24,24,24,23,23,23,23,24,23,23,24,24,26,30,30,28,26,28,30,29,29,29,29,27,26,28,24,23,24,24,25,25,24,28,25,24,23,27,30,27,30,34,38,31,30,37,46,33,24,23,23,23,24,24,23,23,24,23,23,23,24,27,42,62,80,92,100,106,112,116,119,124,126,128,129,127,123,116,108,97,79,69,64,44,33,24,23,24,24,24,23,23,23,24,24,23,24,24,24,23,23,23,23,23,23,23,23,23,24,24,23,23,23,24,23,24,23,23,24,24,23,23,23,23,23,23,23,23,24,24,23,23,24,23,23,23,24,23,27,34,28,24,23,23,23,23,23,24,23,23,24,24,24,24,24,23,24,24,24,27,26,25,26,25,25,25,26,26,25,25,26,26,25,25,25,26,28,29,28,26,26,26,25,25,25,26,26,26,27,27,27,25,25,23,24,23,23,24,23,24,24,24,24,24,24,24,24,23,23,24,23,23,23,24,23,23,23,23,24,23,23,23,23,23,24,23,23,23,23
26,24,23,23,24,23,24,24,24,23,24,24,23,23,24,24,24,24,24,24,24,23,23,24,23,23,24,23,23,24,23,23,23,23,24,24,23,23,23,24,26,24,24,23,27,29,30,29,30,31,28,27,27,25,24,23,23,23,24,25,32,31,24,23,25,27,28,27,28,29,29,30,35,39,40,42,43,34,28,24,23,23,23,23,24,23,24,23,24,30,39,41,66,79,97,105,111,115,120,123,126,127,127,125,120,110,88,62,54,48,29,32,28,23,23,24,23,24,24,23,23,23,24,23,23,24,23,23,23,23,23,23,23,23,24,23,24,23,24,23,24,24,23,24,25,27,26,27,27,25,24,24,23,23,23,24,23,23,23,23,23,24,23,24,24,24,25,26,24,23,24,23,23,24,23,24,24,25,25,24,24,24,24,24,25,25,24,25,26,26,26,25,27,28,28,27,27,27,27,29,32,32,34,35,38,39,37,29,29,28,28,28,28,28,28,31,32,30,30,34,28,24,25,26,25,24,24,25,25,24,24,24,24,24,25,24,24,24,24,24,24,23,24,24,24,24,23,24,23,23,23,24,24,23,24,25
23,24,23,23,24,23,23,23,23,23,24,25,27,30,30,30,29,28,28,28,28,30,31,38,46,47,42,37,32,25,24,23,24,24,24,25,26,28,26,26,29,35,30,25,24,27,29,29,29,28,27,27,26,26,25,24,24,24,24,24,26,26,27,25,24,24,24,28,29,25,24,24,24,27,30,40,40,42,45,31,24,23,23,24,23,23,23,24,24,36,35,29,41,68,86,100,106,112,117,121,125,127,125,116,109,108,95,85,75,65,44,28,24,23,23,23,23,23,24,24,23,24,23,23,23,23,23,24,23,23,23,24,23,24,24,23,23,23,24,24,26,31,38,41,38,36,36,31,29,28,27,25,25,24,23,23,24,24,23,23,23,23,24,24,23,24,23,23,23,23,24,25,27,25,24,24,24,24,24,24,24,24,24,25,25,25,25,24,25,26,29,32,41,54,55,53,52,50,43,39,35,33,36,41,40,41,37,33,31,28,29,29,30,32,31,28,26,28,41,53,46,33,31,32,33,36,39,40,33,30,28,26,25,27,28,27,25,25,24,24,24,24,24,28,29,30,26,25,24,26,30,28,29,31,28,25
34,26,24,23,24,24,23,23,23,24,27,31,35,42,42,41,45,54,54,52,53,58,60,59,55,53,48,44,38,38,43,33,24,28,30,30,29,32,32,33,38,41,43,37,31,28,26,25,26,26,24,25,26,25,24,24,24,24,24,24,24,27,30,28,28,25,25,33,34,27,24,24,24,24,24,24,28,33,36,37,36,29,25,23,23,23,24,23,23,24,26,28,42,60,77,98,106,112,117,120,122,122,116,92,54,46,40,37,29,25,23,23,23,23,23,24,23,23,24,23,23,24,23,23,23,23,24,23,23,23,23,24,24,24,23,23,24,24,25,34,46,51,42,38,35,34,33,32,32,30,30,31,33,31,31,28,26,23,24,25,25,23,24,24,25,24,24,26,26,27,25,27,27,30,31,32,25,24,25,24,24,24,24,24,25,25,26,26,27,26,30,32,38,42,51,52,53,51,50,40,33,33,34,34,33,34,34,33,33,32,31,31,32,32,30,26,27,35,50,65,51,40,35,32,35,41,53,44,37,28,25,25,27,31,27,25,25,24,24,26,26,28,26,28,32,38,43,42,39,31,32,40,44,48,52,45
35,34,30,27,25,28,25,23,24,23,24,24,25,26,28,29,34,38,38,36,37,43,37,33,30,30,34,40,46,42,40,43,30,27,29,28,29,32,33,33,33,32,31,33,35,37,37,38,38,37,33,28,31,30,29,28,28,28,27,26,29,33,33,35,35,31,27,28,29,26,24,23,24,24,23,24,25,25,28,32,40,59,45,35,25,23,23,23,23,25,41,43,44,66,85,96,103,103,96,91,83,83,79,50,24,23,23,23,23,24,23,24,25,23,24,24,24,24,24,23,23,23,23,23,23,23,24,24,23,24,23,23,24,23,24,24,23,28,42,51,49,41,36,32,29,29,30,31,32,32,29,26,26,27,28,30,29,24,24,24,24,24,27,27,27,25,27,27,26,27,27,27,28,31,31,29,25,24,24,24,24,25,25,24,25,24,24,25,26,25,28,33,34,40,43,46,46,48,46,41,39,39,40,40,39,40,36,38,36,36,35,34,33,32,30,27,27,37,55,62,51,41,37,41,42,42,56,64,46,40,51,47,34,31,27,25,27,31,31,33,34,32,36,33,36,39,46,47,43,43,39,32,37,38,40,38
24,25,26,30,31,27,26,23,24,26,30,31,30,28,35,31,26,30,34,34,37,33,34,41,46,45,45,45,58,56,53,52,52,59,55,51,43,37,32,31,31,30,32,32,33,36,39,39,39,40,39,35,34,33,31,29,29,29,28,28,30,31,32,31,30,28,24,26,27,24,23,23,24,25,24,25,27,27,33,33,27,27,33,26,23,23,24,24,23,24,29,39,52,72,93,108,110,98,67,41,30,26,24,23,23,23,23,24,23,24,24,28,31,35,45,44,43,37,25,24,23,24,24,23,23,23,24,23,23,23,24,23,23,24,23,23,26,41,49,43,38,36,31,25,24,24,26,29,31,30,28,27,25,24,24,24,25,27,26,25,26,27,28,29,28,27,27,27,26,28,38,39,32,26,24,24,25,25,25,24,25,26,25,24,25,25,24,26,27,25,26,35,37,38,37,41,41,44,41,39,39,42,41,40,39,41,42,40,39,35,34,32,30,30,30,28,26,31,45,64,62,53,51,53,52,54,60,67,68,58,57,62,57,53,35,26,33,37,34,36,39,39,41,50,51,53,47,39,36,30,28,26,29,26,26,27
23,23,23,23,25,24,24,24,23,24,24,24,24,27,34,27,29,32,33,34,36,45,49,55,52,54,52,52,50,55,59,59,60,62,73,76,73,68,47,36,36,33,36,35,32,32,34,37,39,39,37,36,35,33,31,30,30,29,28,26,26,25,26,25,25,24,24,25,26,26,24,23,24,25,24,24,26,31,35,35,42,36,24,23,23,23,23,24,24,23,23,29,48,79,98,110,114,97,48,25,24,23,24,24,23,24,23,24,23,24,23,23,26,31,40,41,39,26,24,24,23,23,23,23,24,23,24,24,23,23,24,23,23,23,25,28,36,43,39,35,35,31,27,23,24,27,28,29,29,30,30,28,26,26,26,26,26,25,26,27,28,29,28,30,30,29,28,28,28,32,37,26,26,26,24,25,26,27,27,26,27,26,25,25,25,26,26,26,26,26,26,34,36,36,36,35,37,38,39,38,39,37,37,37,37,37,37,37,37,35,31,30,29,29,28,29,28,27,30,37,39,43,50,53,49,53,63,67,57,54,64,60,66,58,46,40,37,35,39,43,51,52,45,48,45,42,40,33,31,29,33,32,30,26,25,24
24,23,23,24,23,23,24,24,24,24,24,24,27,29,26,28,33,32,43,52,56,47,66,55,50,69,67,55,51,56,55,52,59,62,62,68,75,78,70,51,34,32,36,35,32,30,30,32,34,33,34,36,36,34,34,33,33,32,28,28,26,25,24,24,23,24,24,24,24,23,23,24,24,27,26,27,24,25,27,33,30,26,24,23,23,23,23,24,23,23,23,24,31,70,91,104,99,60,25,23,24,24,24,23,23,23,23,24,23,24,23,23,24,23,24,23,23,23,23,24,24,24,24,24,24,24,24,23,24,23,23,24,30,44,54,50,52,47,37,33,27,24,23,25,27,29,28,27,27,27,29,29,26,27,29,28,27,27,26,27,28,29,29,28,28,29,29,29,28,33,34,26,26,26,26,26,26,27,27,26,26,26,27,26,27,28,28,28,28,27,28,29,33,36,40,39,40,39,37,36,38,37,37,35,34,35,35,34,35,34,31,29,31,32,33,33,32,32,31,31,28,30,30,30,30,42,61,75,76,66,64,64,55,54,49,45,40,40,49,49,51,40,34,34,29,31,28,32,44,50,40,36,32,31,28,25
23,24,23,23,23,23,23,23,23,24,24,24,24,25,33,34,30,35,56,58,28,36,50,50,52,56,69,91,91,74,64,58,61,66,66,64,65,69,59,59,37,36,34,32,30,29,30,30,32,35,37,38,38,36,35,35,34,33,30,28,25,23,24,23,24,24,23,23,24,24,23,23,24,28,33,36,34,28,24,23,23,24,23,23,24,23,23,23,23,23,24,23,24,30,45,48,70,36,24,23,24,23,23,23,23,23,23,23,23,24,23,23,23,24,24,23,23,23,23,24,23,23,23,23,23,23,24,24,23,24,23,27,47,62,57,45,41,40,35,31,24,23,24,24,27,27,26,26,25,24,24,26,27,26,29,28,29,29,28,29,28,28,28,28,29,30,29,29,30,35,37,27,27,27,27,26,25,25,25,25,25,25,25,26,26,26,27,27,28,28,29,27,32,34,35,37,38,38,37,36,36,37,37,36,35,35,37,37,36,35,34,33,34,33,35,36,35,35,34,33,32,32,33,32,34,50,59,60,61,58,60,55,55,53,54,54,53,52,46,28,24,24,32,26,26,33,32,35,38,39,34,24,24,23,23,24
23,24,24,24,23,24,24,23,23,24,23,24,24,30,36,29,27,31,36,27,31,35,28,24,23,24,29,37,41,53,65,62,61,60,64,65,55,53,57,45,38,42,42,42,39,39,40,33,31,33,35,37,37,37,37,37,35,34,32,29,25,24,24,24,23,23,23,23,23,23,23,24,24,26,29,30,31,30,25,24,23,27,30,24,24,23,23,24,23,23,24,23,23,23,24,24,28,24,23,23,23,24,24,23,23,23,23,23,23,23,23,23,24,23,24,23,23,23,24,24,23,23,23,24,23,24,24,24,23,24,23,24,43,59,43,30,30,29,30,26,25,24,24,24,24,24,24,24,25,26,25,25,29,29,28,28,29,29,29,30,30,29,29,30,30,30,30,29,29,38,34,27,26,26,26,25,25,25,26,26,26,26,26,26,25,26,27,28,28,28,28,28,29,36,40,38,38,36,35,34,35,35,37,39,37,37,37,36,39,45,48,39,36,36,38,41,40,40,40,38,35,34,34,35,36,46,48,47,42,32,35,33,30,30,31,34,38,30,24,23,24,24,31,36,26,25,25,24,24,24,23,23,23,23,23,23
23,24,24,23,24,23,23,23,23,23,23,23,24,24,24,23,25,34,31,25,23,24,23,24,24,23,23,23,23,24,35,32,43,60,62,65,71,71,74,71,47,41,41,41,36,40,37,36,34,34,38,39,37,38,37,36,36,34,33,31,27,24,24,23,24,23,23,23,23,23,23,23,24,27,30,31,32,32,29,26,26,35,45,28,24,24,23,24,23,23,24,24,23,23,23,23,23,23,23,23,24,23,23,23,23,23,23,23,24,23,23,23,24,24,23,23,23,24,23,24,23,23,24,24,28,25,23,24,24,23,24,24,30,33,25,23,26,28,29,26,23,24,23,24,24,25,26,26,26,26,25,28,29,29,28,28,28,28,29,28,28,28,28,29,30,31,31,29,30,35,33,29,27,26,26,25,25,26,26,27,27,27,27,27,27,27,26,26,27,28,29,29,29,29,32,33,34,33,33,34,34,37,41,40,39,38,40,42,48,53,54,53,47,45,45,47,46,53,49,49,46,44,43,41,40,44,48,43,27,24,24,24,23,23,23,24,24,23,23,23,24,29,44,26,24,24,24,23,24,24,23,23,24,24,24,23
24,23,23,24,24,24,23,23,23,23,23,24,23,23,25,27,27,24,27,25,24,23,24,23,23,23,24,24,23,23,23,26,28,40,57,67,70,72,72,70,66,51,49,50,43,44,43,44,39,40,40,40,41,40,36,36,34,33,33,31,29,26,25,25,24,23,23,24,23,24,24,23,23,26,31,33,35,35,33,32,34,38,42,34,25,23,24,23,24,24,24,24,23,23,23,23,23,23,23,23,23,24,23,24,23,24,24,23,24,23,24,23,23,23,23,24,24,23,23,24,23,23,23,25,35,35,25,23,23,23,23,24,24,23,24,24,24,28,30,26,24,24,23,25,25,25,28,28,27,28,29,31,31,29,29,29,28,27,27,27,27,27,28,28,28,29,28,30,31,34,36,31,28,27,26,26,27,27,26,26,26,27,28,28,28,28,27,27,28,28,29,30,31,33,32,33,33,33,35,38,38,39,41,42,40,51,61,57,63,59,56,71,69,64,52,58,54,56,61,58,54,54,54,47,43,50,35,24,23,23,23,23,24,23,24,23,23,23,24,26,36,43,34,29,24,24,23,24,23,23,23,24,23,23,23,24
24,23,24,23,24,24,23,24,23,24,24,24,26,25,27,24,23,23,23,24,23,24,23,24,24,24,24,24,23,23,23,23,24,28,31,49,54,60,62,61,61,57,51,46,45,48,46,44,45,44,41,39,38,37,36,35,34,33,31,30,30,29,28,28,28,26,25,24,24,23,23,24,25,29,33,35,37,38,40,39,40,40,40,39,29,25,24,24,23,23,23,23,23,23,24,24,24,24,24,24,23,24,23,23,24,23,24,24,24,24,23,23,23,24,23,23,23,23,23,23,24,24,25,25,27,30,28,24,23,23,24,23,24,23,25,24,24,25,24,24,24,24,23,25,27,26,28,29,28,29,30,31,31,31,30,28,28,28,28,28,28,28,27,27,28,28,28,28,32,36,39,31,29,28,27,28,28,28,28,27,27,27,27,27,28,28,28,29,30,31,37,38,36,38,41,38,38,41,38,39,39,42,47,50,46,56,65,64,69,69,56,61,62,53,48,49,52,50,49,51,59,62,60,53,42,29,24,23,24,23,23,23,23,23,23,23,23,24,24,35,53,35,49,25,24,24,24,23,23,24,24,23,24,23,23,23
24,23,23,24,23,23,23,24,24,25,24,25,24,23,24,23,23,23,24,23,23,24,23,23,23,23,23,23,23,23,23,24,23,25,24,34,49,61,57,54,51,60,73,69,58,55,48,46,45,44,43,41,42,41,35,33,33,32,31,32,31,31,31,31,29,28,28,27,26,24,23,24,28,30,33,36,38,41,42,43,42,40,40,39,34,31,31,24,24,24,23,23,24,24,23,24,24,23,23,24,23,23,23,23,23,23,24,23,23,24,24,24,24,23,23,24,23,24,23,23,24,25,27,26,24,25,31,25,24,24,23,23,24,23,24,24,24,24,24,25,27,25,27,27,28,28,29,30,29,30,30,30,31,30,31,30,28,28,29,30,30,31,28,27,28,30,32,30,35,45,38,32,30,28,28,29,29,29,28,27,27,27,27,27,28,29,30,31,33,34,39,53,42,38,46,61,73,68,57,45,41,42,50,50,53,45,60,69,63,56,55,58,55,49,48,43,43,42,38,37,42,46,40,47,36,26,25,26,24,24,23,23,23,23,23,24,24,24,24,40,47,39,26,24,23,24,24,23,23,23,23,23,23,23,23,23
24,23,24,23,24,24,24,24,24,23,24,24,24,24,24,23,23,23,24,23,24,23,23,23,24,24,24,23,24,23,23,24,23,24,25,24,31,52,66,66,58,61,77,83,87,69,55,51,48,46,45,44,41,40,40,39,33,32,31,32,34,35,35,34,33,32,30,28,26,24,24,23,27,31,34,37,40,44,45,45,43,43,41,39,36,37,36,32,24,23,23,23,24,24,23,24,23,23,23,23,23,24,23,23,24,23,24,23,23,23,24,24,24,24,23,24,24,23,23,23,24,26,27,26,24,31,28,26,24,24,23,24,24,25,25,26,25,25,25,26,27,27,27,28,28,29,29,28,28,28,28,29,30,31,31,30,28,29,29,30,31,30,26,27,27,29,31,31,38,40,36,33,30,30,30,32,35,36,34,30,27,27,27,28,28,30,31,30,31,35,44,55,54,56,60,67,66,77,90,82,59,43,46,47,46,55,61,59,57,58,51,49,48,46,48,46,40,34,33,34,33,39,51,62,40,32,33,28,27,25,23,24,23,24,24,23,24,24,23,30,37,25,23,23,23,23,24,24,23,24,24,24,24,24,24,23
23,24,24,24,23,24,23,23,24,24,23,24,23,24,23,23,23,23,23,23,24,24,23,23,23,23,23,23,23,24,24,23,24,24,23,24,24,36,64,75,76,62,62,68,82,90,70,54,50,48,46,44,43,42,43,41,40,33,32,32,35,37,37,37,35,34,31,28,27,26,25,24,28,32,35,36,41,43,43,42,43,44,42,38,35,32,27,28,24,23,24,24,24,23,24,24,24,23,23,24,24,23,24,23,24,23,24,23,23,23,23,24,23,23,23,23,24,23,23,23,24,25,24,23,24,28,27,26,25,24,24,25,26,31,34,34,30,31,31,31,28,30,31,29,30,29,29,29,29,28,28,28,29,30,30,29,28,28,28,29,28,26,26,26,26,26,28,29,32,34,34,34,32,30,31,33,34,34,35,37,36,34,30,29,30,32,37,53,62,64,76,93,77,70,65,62,75,83,92,91,80,70,58,51,50,55,59,59,56,50,48,53,50,49,53,52,46,37,32,30,33,44,43,55,40,29,37,32,24,30,24,24,23,23,24,23,24,23,24,27,24,24,23,23,23,23,23,24,23,23,23,23,24,23,23,23
23,24,23,23,23,23,24,24,23,23,23,24,24,24,23,23,23,23,24,24,23,24,23,24,23,23,24,23,23,24,24,23,23,24,23,24,24,30,41,38,58,64,66,66,71,80,80,58,52,53,53,51,48,45,44,43,40,36,32,33,35,36,37,38,36,35,34,31,31,30,31,32,32,34,36,37,38,40,40,36,28,25,25,25,24,24,25,32,25,24,24,23,23,23,24,23,24,24,23,23,23,24,23,24,23,23,23,24,23,24,23,23,23,24,24,23,24,23,23,23,23,23,23,23,24,24,24,24,25,27,27,31,36,33,33,36,41,40,36,39,36,38,38,34,34,33,33,33,31,30,28,27,28,29,28,28,28,28,27,28,25,25,24,24,24,24,27,30,32,35,33,31,28,28,30,35,38,36,37,41,44,46,46,39,35,35,41,55,68,89,103,105,93,72,62,71,87,93,90,80,71,68,60,51,59,66,73,67,56,49,46,48,45,47,53,46,37,37,34,30,31,39,43,46,34,28,43,38,23,33,27,23,24,23,23,23,23,23,25,24,23,23,23,23,23,23,24,24,24,23,23,23,23,23,24,23
23,24,24,23,24,23,24,23,23,24,23,23,24,23,24,23,24,23,24,23,23,24,23,24,23,24,23,23,24,23,23,23,24,23,24,24,24,23,24,33,29,51,68,54,56,64,69,76,60,54,55,50,50,47,45,43,40,39,35,34,35,36,37,40,35,31,32,36,36,34,34,34,34,36,38,39,34,39,33,30,34,33,24,24,24,24,31,34,30,27,24,23,24,23,23,23,23,23,23,23,23,24,23,23,23,23,23,23,23,24,23,24,24,23,23,23,23,23,23,23,23,23,24,24,24,26,25,28,29,27,28,32,35,36,41,42,40,42,43,34,31,39,40,31,41,46,34,31,31,30,29,28,27,27,29,29,28,27,26,26,24,24,23,23,23,23,25,28,31,33,31,28,27,27,31,39,39,37,40,46,50,53,51,49,49,49,46,41,58,69,97,105,102,74,64,78,93,98,97,88,77,71,60,64,79,78,67,61,55,50,47,43,47,53,53,39,32,33,36,37,34,32,28,26,26,42,50,32,24,27,24,23,23,23,23,24,23,23,24,24,23,24,23,24,24,23,23,24,23,23,23,24,24,23,24,23
24,24,23,23,23,23,24,24,23,24,23,23,23,23,23,24,23,24,23,24,23,23,24,24,23,23,24,24,24,24,24,24,24,24,23,23,23,23,23,25,33,54,47,39,46,61,70,81,71,72,62,53,51,50,49,46,43,41,36,35,38,37,37,32,32,32,30,31,38,38,36,33,35,36,36,39,33,38,34,32,35,26,24,24,25,24,24,24,25,25,25,24,24,23,23,24,23,23,24,24,23,23,24,24,23,23,24,23,23,24,24,23,23,23,24,24,24,23,24,24,23,23,23,23,23,23,24,26,27,29,33,34,43,55,65,82,76,70,57,37,29,28,26,29,40,47,49,30,28,27,25,25,25,26,26,25,25,25,26,26,23,23,23,23,23,23,23,26,27,29,29,27,26,28,29,34,34,35,41,45,41,39,40,42,38,44,55,59,70,57,44,66,103,105,83,76,88,106,106,106,90,77,71,70,72,69,64,61,58,54,47,48,52,60,45,31,28,30,31,38,32,27,26,28,35,51,35,24,23,28,24,23,23,23,24,24,24,23,23,23,24,23,23,24,24,24,23,23,23,24,23,24,23,24,23,24
23,23,23,23,23,24,24,24,23,24,24,24,23,23,23,24,23,23,23,23,23,24,24,24,24,23,23,24,23,23,23,23,23,24,23,24,23,23,23,24,32,51,43,48,65,72,86,92,85,91,70,61,58,57,54,48,43,41,38,35,36,34,35,38,40,34,30,31,30,30,30,34,36,31,30,28,28,38,36,29,27,26,25,26,25,24,23,24,24,24,24,23,23,23,23,23,23,24,23,23,23,24,24,24,23,24,23,23,23,24,24,24,23,23,23,24,23,24,23,23,23,23,23,24,23,23,23,25,30,42,46,39,67,71,42,48,38,31,41,30,29,27,26,33,49,47,49,28,26,24,23,24,25,24,24,24,26,28,28,27,23,23,23,23,23,23,23,25,27,27,25,25,26,27,28,29,31,33,36,39,36,35,36,38,53,71,58,63,41,37,44,55,70,75,93,82,91,95,84,80,85,73,70,69,65,62,58,58,60,65,57,55,55,52,37,29,28,29,30,33,35,32,27,31,44,39,24,23,24,24,24,23,23,24,24,24,24,23,24,23,23,23,23,23,23,23,23,23,23,24,23,24,24,23,23,23
23,23,23,23,24,23,24,24,23,23,24,23,24,24,23,24,23,23,24,24,24,24,23,23,23,23,23,23,23,24,24,23,23,24,24,24,24,23,23,25,36,64,66,73,61,75,100,96,88,108,92,84,70,68,62,49,43,40,39,39,35,34,34,34,34,31,30,34,31,29,34,31,30,28,33,37,37,36,26,24,24,26,25,24,23,23,23,23,23,24,23,24,23,24,24,24,23,23,24,24,23,23,23,23,23,24,23,24,23,23,23,23,24,24,23,23,24,23,23,23,23,23,24,23,23,23,23,25,28,37,48,37,67,45,32,35,32,24,27,43,49,43,34,36,29,29,27,27,25,23,23,24,27,23,24,27,46,51,46,29,25,23,23,23,25,26,29,28,29,27,25,25,26,27,28,29,37,34,35,36,41,44,41,52,74,74,64,78,71,54,54,57,59,70,66,61,67,72,77,75,74,72,68,68,61,56,55,59,61,63,59,63,57,40,31,29,30,30,35,44,41,34,32,41,33,23,23,24,25,35,26,25,24,23,24,24,23,24,24,24,23,23,24,23,24,24,23,23,23,23,24,24,23,23,23,24
23,24,23,23,23,24,23,23,24,24,23,24,24,23,23,23,24,23,24,24,23,23,23,23,23,23,23,24,23,24,24,23,23,23,23,23,24,24,23,30,48,75,75,73,71,66,71,75,86,104,99,89,85,72,63,58,51,44,39,37,37,35,34,33,33,31,30,32,32,30,32,30,34,32,38,34,35,26,23,23,23,24,24,23,23,24,24,23,23,23,24,23,23,23,24,24,23,23,23,23,23,23,24,23,23,23,23,23,24,24,24,24,23,23,24,23,23,23,23,23,24,26,41,54,52,46,39,49,57,51,25,24,26,24,28,26,34,43,24,24,32,54,56,46,50,39,35,29,23,23,23,23,24,24,23,24,29,54,82,72,68,49,23,23,23,26,27,30,28,27,26,26,28,32,31,30,31,43,61,70,74,82,86,94,104,113,104,112,127,115,81,57,56,50,66,74,69,67,62,67,70,71,74,65,58,61,61,61,60,63,67,70,50,38,33,28,31,36,44,47,38,28,29,28,24,24,24,26,28,38,27,24,24,24,24,24,24,23,23,24,23,23,23,24,23,23,23,24,23,24,23,23,23,23,23,23
24,23,24,23,23,24,24,24,23,24,23,23,23,24,23,23,24,24,23,23,24,23,23,23,24,24,23,23,23,24,24,23,23,23,23,23,23,23,24,28,62,68,80,76,77,85,86,73,83,100,95,96,103,83,68,61,54,47,41,36,36,34,32,31,31,30,31,33,31,31,33,39,42,37,37,30,26,24,24,23,24,24,24,24,24,23,24,23,23,24,23,23,24,23,23,23,23,24,24,23,24,23,23,24,23,23,24,23,23,24,23,24,24,23,24,23,24,24,23,23,24,25,43,49,50,59,57,41,36,33,24,24,24,23,29,23,24,36,38,29,24,24,53,48,47,47,31,30,24,25,32,50,52,37,28,27,28,48,81,72,48,72,50,23,23,23,26,29,26,26,27,27,28,32,32,32,33,56,93,75,102,116,134,144,109,88,65,61,58,59,68,62,60,60,63,77,89,77,67,57,58,62,60,66,67,69,75,76,74,70,69,54,50,38,27,26,37,42,57,66,28,24,23,23,24,24,23,25,25,24,24,23,24,23,23,23,23,23,23,23,23,23,24,23,23,23,24,24,23,23,24,23,24,23,23,23
23,23,23,23,23,23,23,24,23,23,23,23,24,23,24,23,23,23,23,24,23,23,23,23,23,23,23,23,23,24,24,23,23,24,24,23,24,23,24,26,51,52,78,71,80,88,89,74,89,99,90,102,121,82,71,60,51,44,40,36,34,33,31,30,30,31,32,33,33,33,35,40,35,30,26,24,24,24,24,24,23,24,23,24,23,23,23,23,24,23,23,24,23,23,23,24,23,24,23,23,24,23,23,23,23,23,24,23,23,23,23,23,23,23,24,24,23,23,23,23,23,24,37,42,51,48,58,52,25,24,24,23,23,23,35,24,23,23,26,38,25,24,46,48,27,24,25,31,39,50,58,61,57,62,71,81,89,95,91,79,91,40,28,24,23,23,28,28,26,27,28,29,29,30,37,49,55,75,85,101,128,126,97,80,63,59,58,57,56,55,52,51,55,64,72,82,98,92,71,67,67,71,69,63,66,67,64,67,68,63,40,31,31,26,24,28,28,36,49,30,24,23,23,24,23,23,23,27,36,24,23,23,24,23,23,24,23,23,23,23,24,24,23,24,23,23,24,23,23,23,23,23,23,23,23,23
24,23,24,23,24,23,23,23,24,23,23,24,23,23,24,23,24,23,24,23,23,24,23,24,23,23,24,23,24,23,23,23,24,24,23,23,23,24,23,23,32,27,75,86,88,90,90,82,100,79,88,111,123,92,72,62,52,44,39,36,33,32,32,30,29,28,30,31,33,32,39,47,31,25,24,23,23,24,23,23,23,24,23,23,23,23,23,24,24,24,23,24,23,23,24,23,24,24,23,24,23,23,23,23,23,24,23,24,24,23,24,23,23,23,23,24,23,23,23,24,23,25,30,37,41,46,53,36,24,23,23,24,24,23,25,23,24,25,26,32,24,23,25,41,31,24,25,33,50,63,62,58,65,74,79,68,65,74,89,95,73,71,51,23,23,23,23,32,41,28,28,29,30,31,35,65,87,92,127,170,171,148,79,64,64,63,62,63,62,66,90,123,127,120,126,143,163,163,148,108,88,71,69,70,69,67,62,73,64,36,24,24,23,24,24,24,24,27,36,28,23,24,24,23,23,23,24,32,29,24,24,24,24,23,24,23,24,24,23,23,23,23,23,23,24,24,23,24,23,23,24,24,23,24,23,24
23,24,23,23,23,23,24,24,23,24,23,24,23,23,23,24,24,23,23,24,23,23,23,23,23,24,23,23,24,24,23,23,24,24,24,23,23,23,24,23,24,31,36,96,74,74,68,81,86,80,86,109,112,101,76,60,51,43,37,35,33,35,35,31,28,28,30,33,36,41,48,35,27,24,23,24,24,23,23,24,23,23,24,23,23,24,24,23,24,23,23,24,24,23,23,23,24,23,23,24,23,23,24,23,24,24,23,23,24,24,24,24,24,23,24,24,23,23,23,24,23,24,27,28,36,50,41,24,23,23,25,27,27,25,27,24,23,29,33,23,24,23,24,34,29,24,24,27,47,60,60,64,64,43,51,43,46,45,63,82,75,87,75,40,26,23,31,51,63,73,47,31,34,36,34,40,41,58,128,168,175,173,138,112,83,72,74,91,127,165,178,169,167,140,118,120,134,143,149,141,129,99,79,74,74,69,58,66,62,31,24,25,24,25,25,24,23,24,28,39,24,24,24,24,24,27,37,44,26,23,23,24,23,24,24,24,24,23,23,23,24,24,23,23,23,23,23,24,23,24,23,23,23,23,23,24
23,23,23,24,23,23,23,24,24,23,24,23,24,23,23,23,23,23,23,24,23,24,23,23,24,23,24,23,23,24,23,24,23,24,23,23,24,23,24,23,23,28,36,54,59,56,52,76,85,84,92,94,98,89,71,60,51,43,36,32,32,36,31,26,27,30,32,37,43,47,35,29,26,24,23,23,24,23,23,24,24,23,23,23,23,23,23,23,24,23,24,23,23,23,23,23,24,23,23,24,23,23,23,23,23,24,23,24,24,23,23,24,24,24,23,24,24,23,23,23,23,23,23,24,28,24,24,27,35,47,49,49,56,53,43,26,23,24,24,24,23,24,23,23,24,27,24,24,24,28,24,33,24,30,37,36,35,34,32,41,68,88,86,78,84,76,73,61,60,71,72,49,43,60,80,92,89,119,153,148,139,163,190,198,186,175,186,191,192,194,193,191,191,182,172,162,159,153,162,134,130,99,91,86,68,66,56,54,52,27,25,31,29,24,24,23,24,23,31,31,24,23,25,28,27,49,55,25,23,23,23,24,23,23,24,23,23,24,23,23,23,23,24,23,24,23,23,24,24,24,24,23,24,24,23,23
23,23,23,23,23,23,23,23,23,23,24,23,23,23,24,23,23,24,24,24,24,24,24,23,23,23,23,24,23,23,24,23,24,23,24,23,23,23,23,23,23,24,30,43,53,48,40,58,72,84,96,93,86,75,67,60,46,37,34,31,31,30,27,25,27,30,32,34,38,31,28,25,24,23,23,24,24,24,23,23,23,24,23,23,24,24,23,23,23,24,23,23,23,23,23,24,24,23,23,23,23,23,24,23,24,24,24,24,23,23,24,24,23,23,23,23,23,24,23,23,23,23,23,27,42,49,50,58,59,61,55,37,29,37,34,25,23,23,23,24,23,23,23,23,23,24,24,24,23,24,24,27,23,41,50,43,36,33,28,28,48,79,88,84,62,55,51,48,54,63,60,54,74,100,116,128,128,97,69,57,106,142,172,193,203,199,199,196,196,195,194,196,194,185,179,180,178,174,172,160,147,130,98,77,66,53,52,47,31,26,25,25,24,23,24,23,23,24,25,24,23,27,33,30,33,25,25,23,23,23,23,23,24,23,24,24,23,24,24,23,23,23,23,24,24,24,23,24,24,23,24,24,23,23,24,24
24,23,24,23,23,24,24,23,23,24,23,23,24,24,24,23,23,24,23,23,24,24,23,24,24,23,23,23,24,23,24,23,23,24,23,23,23,24,23,23,23,23,23,24,30,40,31,35,42,67,81,83,78,70,63,55,45,38,33,29,27,26,25,25,28,26,29,31,29,27,25,24,23,23,23,24,24,24,24,23,23,24,23,24,23,23,23,24,23,23,23,23,24,23,23,24,23,23,23,23,24,23,24,24,23,23,23,23,23,24,24,24,23,24,24,24,24,23,23,23,23,24,33,48,78,69,65,63,59,52,46,34,27,26,29,30,24,25,24,23,23,23,24,29,24,23,24,24,23,23,24,23,24,43,50,49,47,39,29,25,27,50,63,99,91,75,61,58,59,65,80,52,66,91,89,108,104,90,45,38,42,76,160,194,189,189,187,186,193,192,195,192,194,194,187,185,176,173,173,166,149,145,92,64,61,56,49,37,29,25,25,24,24,24,23,23,24,24,24,23,26,34,28,25,24,23,24,23,24,24,24,24,23,24,23,23,23,23,23,23,24,23,23,23,24,24,23,23,23,24,24,23,23,24,24,24
23,23,23,23,23,24,23,23,23,23,23,24,23,24,23,23,23,24,23,23,23,23,23,23,23,23,24,24,23,24,24,24,23,23,24,23,23,24,23,24,23,24,23,23,24,46,26,31,51,69,72,67,68,67,54,51,46,40,33,28,27,26,25,27,27,26,27,27,27,25,24,23,23,23,23,23,24,23,24,23,24,24,24,23,23,24,23,24,23,24,23,23,24,23,24,24,23,23,23,23,23,24,24,23,23,23,24,23,24,23,23,24,23,23,24,24,24,24,23,23,23,39,58,82,69,56,52,50,45,42,39,31,29,29,32,37,40,39,27,24,24,23,27,29,28,28,26,25,24,23,24,24,27,41,46,50,50,40,33,27,24,24,25,62,99,85,83,73,62,48,69,46,44,53,63,82,96,72,30,29,30,32,64,151,184,194,196,191,188,188,187,183,185,184,185,183,173,169,166,163,153,129,52,42,47,63,60,37,29,28,32,25,24,24,24,23,24,24,23,24,25,27,23,24,23,23,23,23,24,24,23,24,24,23,24,23,23,24,24,24,23,24,24,23,23,23,24,23,23,24,24,24,23,24,23,23
24,23,23,24,24,23,23,23,23,24,23,23,23,23,23,23,23,24,23,23,24,23,24,24,23,23,24,23,23,23,23,23,24,24,24,23,23,23,24,23,24,24,23,23,23,30,34,25,42,58,71,80,72,68,64,48,45,41,31,26,25,24,24,24,24,24,24,24,24,25,24,24,23,24,24,24,23,23,24,24,23,23,24,24,23,23,23,23,23,23,23,24,23,24,23,23,24,23,23,24,24,23,24,23,23,24,24,23,23,23,23,24,24,23,23,24,23,23,24,23,24,48,65,54,47,46,42,41,39,39,36,32,31,32,34,40,44,42,33,31,30,26,24,25,26,27,29,26,26,27,28,33,39,53,52,45,48,42,37,35,29,26,24,28,70,95,87,88,95,42,58,49,45,56,58,80,70,64,29,28,29,31,34,55,112,158,183,195,200,198,197,194,188,190,185,166,177,172,169,163,146,62,38,35,42,57,58,28,25,26,29,30,34,27,25,24,23,23,24,23,24,23,24,23,23,24,24,24,24,24,23,23,23,23,23,23,23,23,23,24,24,23,23,24,24,23,23,24,24,24,24,24,23,23,23,23
24,23,23,23,23,23,24,23,23,24,23,24,23,24,23,24,24,24,23,23,23,23,24,23,24,23,23,23,23,24,23,24,23,23,23,24,24,23,24,24,23,24,23,24,23,23,28,31,26,38,62,96,80,68,62,59,34,30,27,24,23,23,23,23,24,23,24,23,23,24,24,23,23,23,23,23,23,23,24,24,24,23,24,23,23,24,23,23,23,24,24,23,24,23,23,23,23,24,23,23,24,23,24,23,23,24,23,24,24,24,24,24,24,23,24,24,26,24,24,24,30,43,40,42,40,39,37,34,35,41,40,36,35,37,42,45,43,43,41,38,33,29,28,26,27,27,26,25,30,28,36,35,46,56,55,52,52,49,45,39,35,32,25,23,34,68,75,79,89,64,54,74,50,55,57,77,29,34,27,28,30,32,31,31,36,49,102,158,176,192,183,181,185,181,155,102,135,163,152,158,132,81,40,45,56,48,39,29,27,35,25,29,37,36,27,24,23,23,23,23,24,23,23,23,23,24,24,24,24,23,23,24,23,24,23,24,24,23,23,24,24,23,24,24,23,23,23,23,23,23,23,24,23,24,23,23
23,23,24,24,23,23,24,23,23,23,24,23,23,23,23,23,23,24,23,23,24,23,23,24,24,23,23,23,23,24,24,24,24,23,24,24,23,23,23,23,23,23,24,23,24,23,25,31,26,25,43,90,83,72,66,59,36,29,24,23,24,23,23,23,24,23,23,23,24,24,24,24,24,23,24,24,23,23,23,24,24,23,23,23,23,23,23,23,24,23,23,24,24,23,23,23,23,24,24,23,23,23,24,24,24,23,23,24,23,23,23,24,24,23,24,24,25,24,24,30,36,40,37,36,37,37,35,32,35,36,37,40,39,40,41,41,41,39,39,42,44,33,30,28,29,30,30,30,30,29,35,39,24,34,60,56,57,57,50,43,39,34,27,24,24,33,47,41,38,45,47,66,61,52,65,59,25,26,29,31,34,37,34,29,29,28,30,35,47,95,114,121,111,112,63,35,59,83,123,123,103,95,79,64,55,46,40,33,29,31,31,39,45,33,23,24,23,23,23,23,23,24,24,24,23,24,24,23,23,23,24,23,24,23,23,23,24,23,24,23,23,23,24,24,23,23,23,23,23,23,24,24,23,23,23,23
23,23,23,23,24,23,24,23,23,23,23,23,23,23,23,23,24,23,24,23,24,24,23,23,24,23,23,23,24,24,23,24,23,24,24,23,24,24,23,24,23,23,24,23,23,23,23,24,30,24,26,60,101,80,65,68,55,29,24,23,24,23,23,24,23,23,23,23,23,24,24,23,23,23,24,24,23,23,24,23,24,23,24,23,23,24,24,24,24,23,23,23,23,24,23,23,23,24,24,23,24,23,24,24,24,23,24,24,23,24,24,23,23,24,24,23,23,24,29,35,37,37,37,36,37,35,34,32,31,31,38,50,54,58,52,45,47,42,39,41,39,34,32,31,34,35,35,34,32,34,34,34,29,24,38,50,62,56,51,46,46,41,33,26,24,24,23,25,26,36,37,38,36,41,37,35,27,25,30,30,35,35,33,32,28,27,27,26,25,25,26,25,31,41,38,60,38,56,105,98,88,97,83,63,56,46,46,35,38,38,37,43,39,24,24,24,24,24,24,24,23,23,23,24,23,23,23,24,23,23,23,23,23,24,24,23,23,23,23,24,23,23,23,23,23,24,23,23,24,23,23,24,23,23,24,24
23,23,23,23,23,23,24,23,24,24,24,23,24,24,23,23,24,24,23,23,23,23,24,24,23,23,23,24,24,24,23,23,24,24,24,23,24,24,23,23,24,24,24,23,23,23,23,24,25,26,23,27,76,94,85,85,88,39,25,24,24,23,24,23,23,23,23,23,24,24,24,24,24,23,23,23,23,23,24,24,23,24,23,24,23,23,24,23,23,23,24,23,24,23,23,23,23,24,24,24,24,24,23,24,24,23,23,23,23,24,24,23,24,23,23,24,24,27,32,33,32,33,36,34,33,33,32,33,34,37,45,57,61,65,62,55,52,45,42,42,39,39,38,36,37,39,45,40,35,30,37,31,37,24,28,44,53,55,55,53,49,44,36,30,24,24,24,31,27,23,23,23,24,23,23,24,25,24,25,30,40,38,35,38,35,34,33,31,32,30,26,24,24,28,49,40,34,55,79,86,84,86,69,51,43,34,36,39,36,36,36,37,25,24,41,23,24,23,24,23,23,23,24,23,24,24,23,23,23,24,23,23,23,23,23,24,24,24,23,23,23,23,23,23,23,23,23,24,24,24,23,24,23,23,24,23
24,23,24,23,23,23,24,23,23,23,23,23,24,23,24,23,23,23,23,23,24,23,23,23,24,23,24,24,24,23,23,23,24,23,23,23,24,23,23,24,24,24,23,24,23,24,23,23,23,27,24,23,35,85,97,94,82,50,26,23,24,23,23,23,24,23,23,24,24,24,24,24,24,23,23,24,23,24,24,23,24,23,24,24,23,23,24,23,23,23,23,24,23,23,24,23,24,24,24,23,24,24,24,23,23,23,23,24,23,23,24,23,23,23,24,24,25,32,34,33,32,32,34,34,33,33,33,34,35,38,43,57,72,60,51,51,53,48,46,46,43,49,44,42,40,42,50,38,33,30,32,32,39,27,23,26,54,56,56,54,49,44,34,29,26,27,27,29,42,38,26,24,24,23,23,23,24,25,25,25,30,39,39,38,39,43,42,45,41,30,25,24,24,30,57,32,37,58,67,72,69,71,64,49,34,30,30,30,26,28,28,24,23,32,37,23,23,24,24,23,24,24,23,23,24,23,23,23,23,23,23,23,23,23,23,24,24,23,23,23,23,23,23,24,23,24,23,23,23,24,24,23,23,24,24,24
24,23,24,23,24,23,24,23,24,24,24,24,24,23,24,24,24,24,23,23,24,24,24,24,23,24,23,23,24,23,24,23,24,24,23,23,23,24,23,23,24,23,24,23,24,23,23,23,23,24,23,23,23,50,86,94,84,46,25,24,23,23,23,23,24,24,23,24,24,24,24,26,24,24,23,24,24,23,23,24,23,24,23,23,24,24,23,23,24,23,23,23,23,24,24,23,24,23,24,23,23,23,23,24,23,24,23,23,23,24,23,23,24,24,24,23,26,30,32,35,36,34,35,34,33,33,34,35,36,39,42,47,48,46,47,43,45,46,43,55,59,64,45,42,43,44,45,37,34,34,34,36,40,41,26,24,49,61,55,56,48,40,33,30,28,27,27,26,29,30,25,23,23,23,23,23,23,24,28,24,30,34,35,42,39,39,33,32,35,31,24,24,24,27,54,32,40,56,61,61,57,53,40,32,31,25,26,28,24,24,23,23,23,24,24,24,24,23,24,23,23,23,23,23,24,24,23,23,23,23,24,24,23,24,23,24,24,23,24,24,23,23,24,24,24,23,24,24,24,23,23,23,23,23,23,23
23,23,24,23,23,23,23,24,24,23,23,23,24,24,23,23,25,30,23,24,23,23,23,24,23,23,23,24,23,24,23,23,23,24,23,24,23,23,23,24,24,24,24,23,23,24,24,24,24,23,24,23,24,56,78,88,95,92,54,26,23,23,24,23,25,24,23,24,24,23,23,23,24,27,28,24,25,24,23,24,23,24,23,24,23,24,24,24,23,23,23,23,23,23,24,23,23,24,23,24,23,23,24,23,24,24,24,24,24,24,23,24,23,23,23,23,25,27,31,37,36,36,35,34,33,33,34,35,38,44,44,42,40,43,48,40,38,40,40,51,67,64,43,42,46,48,44,41,36,33,36,36,39,43,31,24,31,67,61,52,46,40,35,32,30,28,27,27,28,24,23,23,24,23,23,23,23,24,24,24,40,39,38,35,31,36,38,36,29,24,23,24,23,24,33,32,45,57,54,47,50,57,47,24,23,24,24,24,24,23,24,23,24,23,24,23,23,23,23,24,23,23,24,23,23,23,24,23,24,23,24,23,23,23,24,24,24,23,24,24,24,23,24,24,24,24,23,23,24,23,24,23,23,23,23,23
24,24,23,23,24,24,23,24,24,23,23,24,24,24,23,23,24,35,23,23,23,23,23,23,23,23,24,23,23,23,23,24,24,23,23,23,23,23,23,23,23,24,23,23,23,24,23,24,24,24,23,23,23,28,51,61,67,93,97,34,25,24,24,25,28,24,24,24,23,23,24,23,24,24,23,26,35,45,27,24,24,24,23,23,24,23,24,23,23,23,23,23,23,23,24,24,24,24,23,23,24,24,23,24,24,23,24,24,23,24,24,23,23,23,24,23,24,25,27,32,37,35,35,34,34,33,33,36,38,43,39,37,37,41,52,39,37,39,39,39,41,39,39,43,49,45,42,42,35,32,34,36,37,45,36,23,23,36,80,65,51,44,38,34,34,32,30,30,26,24,23,24,23,24,23,23,24,24,23,24,41,43,40,37,32,35,43,37,25,24,23,23,23,24,23,31,35,49,47,42,45,51,43,24,24,29,27,24,24,23,23,24,23,24,25,23,23,23,23,24,24,23,23,24,23,24,24,23,23,23,24,24,24,24,23,23,24,24,23,23,23,23,23,23,23,24,23,24,23,23,23,24,23,23,23,23
23,24,24,24,24,23,23,23,23,24,23,23,24,23,23,24,23,23,23,24,24,24,24,24,24,23,24,24,23,23,24,23,23,23,23,23,23,24,23,24,23,23,24,23,23,24,24,23,23,23,24,23,24,23,24,28,53,63,84,63,29,34,36,28,30,24,23,23,23,23,24,23,25,26,23,23,24,26,24,24,25,24,23,23,23,23,23,23,24,23,23,23,24,23,23,23,23,23,23,23,23,24,23,24,23,23,23,24,23,23,24,23,23,24,23,23,24,25,26,32,32,31,32,34,33,33,33,34,35,37,36,35,36,41,49,39,37,39,37,34,33,33,37,46,53,46,43,41,37,36,35,38,36,40,40,36,23,24,58,75,54,49,46,44,47,45,39,29,24,24,24,23,24,23,23,23,23,23,23,23,40,42,41,42,33,29,34,24,24,24,24,23,23,23,24,26,25,37,38,36,35,30,34,33,24,24,24,23,23,23,23,24,23,28,39,23,23,23,24,23,24,24,23,23,23,23,23,23,24,23,24,24,23,23,24,24,23,24,23,23,23,23,23,24,24,23,24,24,23,23,23,23,23,23,23,23
23,23,23,24,23,23,23,23,23,23,23,23,24,23,23,24,24,23,23,23,23,23,24,23,24,24,23,23,23,24,23,24,24,23,24,23,23,24,24,23,23,23,24,23,23,23,23,24,23,23,24,24,23,24,24,23,24,24,38,56,29,42,69,41,33,26,27,26,23,24,23,24,24,23,24,23,24,23,23,24,23,24,24,23,24,23,23,23,23,23,23,23,23,24,24,23,24,24,23,23,23,23,23,24,23,24,23,23,23,23,24,23,23,23,23,23,24,25,25,28,31,30,32,34,33,32,33,34,33,34,34,36,39,40,41,38,37,36,35,33,32,34,38,45,52,48,50,46,39,39,38,38,38,38,43,54,23,23,31,83,59,54,56,51,43,29,24,23,23,24,24,24,23,23,23,24,23,23,23,24,33,44,39,36,31,24,24,23,24,24,23,23,23,23,23,24,24,25,39,28,35,29,29,35,38,24,24,23,24,23,23,23,24,31,36,24,23,24,24,23,23,23,24,23,24,23,23,24,23,24,23,23,23,24,24,23,23,23,23,23,23,23,24,23,24,24,24,23,24,24,23,24,24,23,23,23
24,23,23,23,23,23,24,23,24,23,24,23,23,24,24,23,23,24,23,24,23,23,24,23,23,23,23,23,23,23,23,23,24,24,23,24,24,23,24,23,24,23,23,24,24,23,23,23,24,23,23,23,23,24,23,23,23,23,23,24,23,23,47,68,52,54,52,36,25,23,23,23,24,23,23,23,24,23,24,23,24,23,24,23,24,23,23,23,23,24,23,24,23,24,23,23,24,23,23,23,24,24,24,23,24,23,23,24,23,23,24,24,23,24,24,23,25,25,26,26,30,33,34,33,32,35,33,33,32,33,32,35,38,38,39,38,36,35,35,34,33,35,38,52,53,57,55,48,42,40,38,37,39,41,52,77,43,26,27,89,73,61,55,36,26,24,23,24,24,24,23,23,24,24,23,23,23,23,23,23,25,42,43,35,29,24,23,24,24,23,24,23,23,24,23,24,23,26,37,25,33,29,29,35,48,32,23,23,23,23,24,23,23,26,27,24,23,23,23,23,23,23,24,24,23,23,23,23,24,24,23,24,23,23,23,23,24,24,23,23,24,23,23,23,24,23,24,23,23,23,23,23,23,23,23,23
23,23,23,24,23,24,23,23,23,23,24,23,23,24,23,24,24,24,23,23,24,23,23,23,23,24,24,24,24,23,23,23,24,23,23,23,23,23,23,23,24,23,24,23,23,23,23,23,23,24,23,24,23,24,23,24,23,24,23,23,23,24,24,24,30,32,46,35,24,23,23,23,23,23,24,23,24,23,24,23,23,23,23,24,24,24,23,23,23,24,24,23,23,24,23,23,23,24,23,24,23,23,23,23,23,23,24,23,23,24,23,23,23,23,24,23,24,25,25,28,32,34,36,34,33,33,34,34,32,32,32,33,35,38,37,35,35,33,33,33,34,36,39,48,54,60,46,43,44,42,38,37,39,44,66,84,60,32,26,52,41,27,24,24,24,23,24,23,23,23,23,23,24,23,24,24,23,24,23,24,24,38,50,49,32,24,23,24,23,23,24,24,23,23,24,23,23,24,34,24,27,25,26,27,33,33,23,23,23,24,23,23,24,25,28,25,24,23,24,23,23,23,24,23,23,24,23,24,24,23,24,24,24,24,23,23,24,24,23,24,23,24,24,23,23,23,23,23,23,23,23,24,23,23,24,23
23,23,23,23,23,23,23,24,23,24,23,23,24,24,23,23,24,24,23,23,23,23,23,23,24,23,23,24,23,24,23,24,23,23,23,23,23,23,24,23,23,23,23,23,23,23,23,23,24,23,24,23,23,23,23,23,23,23,23,23,23,23,23,23,23,23,27,29,25,23,24,23,24,23,24,24,24,24,24,23,23,23,23,23,24,24,23,24,23,23,24,23,23,23,24,23,23,24,23,23,23,24,23,23,23,24,24,23,23,23,23,24,23,23,23,24,24,25,30,41,38,37,36,35,36,34,34,33,32,32,31,33,38,42,38,36,36,34,33,34,35,39,39,42,49,47,41,40,43,45,42,38,41,50,85,99,66,40,34,23,24,24,24,27,26,23,25,24,23,24,23,23,24,24,23,24,23,24,24,23,24,28,50,40,27,23,23,23,24,23,24,24,23,24,23,23,24,23,29,23,24,33,26,25,41,37,23,24,23,24,23,23,23,24,25,24,25,25,24,24,24,23,23,24,23,23,23,23,23,23,23,23,23,23,23,23,23,23,23,23,24,23,23,23,24,24,23,23,23,23,23,24,24,23,23,23
23,23,24,23,23,23,24,24,23,24,23,23,23,23,24,24,23,24,23,23,23,23,24,24,23,24,23,24,24,23,23,23,23,24,23,23,24,23,23,23,23,24,24,23,23,24,23,23,23,24,23,24,23,23,24,23,23,24,23,24,23,24,23,24,24,23,24,31,33,23,23,23,24,23,24,48,39,31,42,34,35,25,32,25,24,23,23,24,24,23,23,23,24,24,24,23,24,23,24,23,23,23,23,24,24,24,24,24,23,23,23,24,24,23,23,23,24,24,33,44,39,37,37,36,36,34,33,30,30,35,34,31,37,45,48,39,37,42,36,35,35,38,38,39,41,41,39,38,38,40,38,38,50,62,91,96,75,45,49,32,36,50,55,45,26,23,23,24,24,23,23,23,23,24,24,23,24,24,24,23,24,23,36,33,25,24,23,24,23,23,24,24,23,24,23,24,24,24,26,24,23,24,25,24,25,23,23,23,23,24,23,23,24,24,25,27,26,24,23,24,23,23,24,24,23,23,23,23,23,24,23,24,24,23,24,24,24,23,24,24,23,24,23,23,24,24,23,23,23,24,23,23,23,23,23,23
24,23,23,23,24,23,23,24,23,23,23,24,23,23,23,24,23,23,24,23,23,23,23,24,23,23,24,23,24,23,23,23,24,23,24,24,23,23,23,23,24,23,23,23,23,23,23,24,24,23,23,24,23,23,23,23,24,23,23,23,23,24,23,23,23,23,23,24,44,39,28,26,26,24,25,32,28,56,41,28,29,28,30,25,24,24,24,23,24,23,24,24,23,23,23,24,23,23,24,23,24,23,24,23,23,24,23,23,23,23,23,24,24,23,23,23,24,23,25,31,40,45,40,36,34,33,31,28,32,34,36,31,29,39,44,32,36,34,36,37,36,36,38,41,48,46,41,38,37,37,37,37,60,76,88,102,73,74,75,64,55,48,47,38,24,23,24,23,24,23,23,23,23,23,23,24,23,24,23,23,24,23,29,28,23,24,24,23,24,24,24,24,23,23,24,24,24,24,28,23,24,23,24,24,23,24,23,24,23,23,23,24,24,24,24,26,26,29,23,23,23,23,23,23,23,23,23,24,23,23,24,23,23,24,23,23,23,23,23,24,23,23,24,23,24,23,24,24,23,23,23,23,23,24,23,24
23,24,23,24,23,23,24,24,24,23,23,24,23,23,23,24,23,24,23,23,23,23,23,23,23,24,24,23,23,24,23,23,24,23,23,24,24,23,23,23,23,23,24,23,23,24,24,24,23,23,23,23,24,24,24,24,23,24,24,23,23,23,23,23,23,23,23,24,23,24,27,23,29,34,37,40,71,40,27,26,25,27,28,32,29,25,24,24,24,23,23,24,23,23,23,24,23,23,23,24,23,23,23,24,23,24,24,23,23,23,23,23,23,24,23,23,23,23,23,25,34,38,39,33,31,32,32,28,33,29,31,35,32,30,28,34,48,50,50,42,38,38,40,47,48,49,45,41,38,37,37,37,44,86,86,96,93,62,55,55,46,43,39,27,23,24,23,24,23,23,24,23,24,24,24,24,23,23,23,24,24,24,23,24,24,30,24,23,24,24,23,23,23,23,24,23,24,24,25,25,23,23,23,23,23,24,23,23,23,23,23,23,24,23,25,28,38,37,23,23,23,23,23,23,24,23,24,23,23,23,24,23,23,24,23,24,23,23,24,23,23,24,24,23,23,24,24,23,24,23,23,23,24,24,23,23
23,24,24,23,23,24,24,23,23,23,23,24,23,24,23,24,23,24,23,23,23,24,23,23,24,24,23,24,23,24,23,24,23,23,24,23,24,23,23,24,23,23,24,23,23,23,23,23,23,24,24,23,24,24,23,24,23,24,23,23,24,23,23,24,23,24,23,23,23,24,24,23,24,46,72,56,93,28,27,26,35,39,35,40,41,30,25,23,24,24,23,24,23,23,24,23,24,23,23,24,24,24,23,23,24,23,24,24,24,24,23,23,23,24,23,23,24,24,23,23,25,30,32,31,28,28,30,30,26,24,24,25,27,28,32,61,56,54,57,51,42,41,41,44,45,45,46,43,41,39,38,38,45,58,75,91,76,50,40,40,39,33,27,23,23,24,23,24,23,23,24,23,24,24,23,23,23,23,24,24,23,23,24,23,23,31,23,24,23,23,23,24,23,23,24,23,24,24,24,27,27,23,23,24,23,23,24,23,24,24,29,27,23,23,24,23,31,28,23,24,24,23,23,23,23,23,23,23,23,24,23,24,24,23,24,24,23,23,24,24,24,23,24,24,23,24,23,23,23,23,23,24,24,23,24,23
23,24,23,23,23,23,24,24,23,23,23,23,23,24,23,23,23,23,23,24,23,24,23,24,23,23,23,24,23,24,23,23,23,23,23,23,23,23,23,24,23,23,24,23,23,23,23,23,23,24,23,23,23,23,24,24,24,23,23,24,24,24,23,23,23,23,23,24,24,24,23,24,24,42,75,94,42,28,28,27,38,42,44,45,54,43,27,26,26,27,26,24,23,23,23,23,23,24,24,23,24,24,24,23,23,23,23,23,24,23,24,23,23,24,23,23,23,23,23,23,23,24,27,25,24,24,25,24,23,23,24,24,24,25,33,48,45,47,48,45,44,39,39,41,42,44,45,46,46,47,43,44,43,43,59,70,60,42,37,38,33,29,25,23,24,23,23,23,24,23,24,23,23,23,23,23,23,24,23,23,24,23,23,23,24,23,23,23,23,24,23,24,23,23,23,25,41,30,23,27,40,27,24,24,24,23,23,24,24,25,43,34,24,24,24,24,23,24,23,24,24,23,23,23,24,23,24,23,24,24,23,23,23,23,23,24,23,23,23,24,23,24,23,23,24,23,23,23,23,23,23,24,24,23,23,23
24,24,23,24,24,24,24,23,23,24,24,23,24,23,24,23,23,23,24,24,23,24,23,23,23,24,23,24,24,24,23,23,23,24,23,23,24,23,23,23,24,23,23,24,24,23,23,24,24,24,23,24,23,23,23,23,23,23,23,23,23,23,23,24,24,23,23,23,24,23,24,23,24,65,75,58,30,30,29,27,28,42,48,38,28,30,29,31,31,29,29,25,24,24,23,24,24,24,23,23,23,24,23,23,24,24,24,23,23,23,23,24,24,24,23,23,24,23,23,24,24,24,23,23,23,24,23,23,24,23,23,24,23,24,26,34,46,46,44,42,39,36,37,39,40,41,45,47,49,56,52,59,60,41,45,53,48,38,34,37,29,25,23,23,24,23,23,24,23,23,23,23,23,24,23,24,24,24,23,23,24,23,24,24,24,23,24,23,24,23,24,23,23,23,23,24,26,50,29,24,31,25,23,24,24,24,23,23,24,36,50,25,23,23,23,23,23,24,23,24,23,23,23,24,23,23,24,23,23,24,24,24,24,23,24,23,23,23,24,24,24,24,23,23,24,23,24,23,23,23,23,23,24,23,23,24
24,23,23,24,23,24,24,24,23,24,24,23,24,24,23,23,23,23,23,23,23,24,23,23,24,23,23,23,23,23,23,23,23,24,23,23,23,23,24,24,23,23,23,23,24,23,23,23,23,23,24,23,24,23,23,23,24,23,23,24,24,23,23,24,24,24,24,23,24,24,23,24,34,91,58,33,31,30,30,28,27,33,42,32,28,30,33,33,36,33,30,27,23,24,24,23,23,23,23,23,24,23,23,23,23,23,23,24,24,23,23,23,23,23,23,24,23,23,24,23,24,23,24,24,24,24,23,23,24,24,23,23,23,24,23,39,44,43,41,38,36,35,36,37,38,40,42,46,53,66,55,59,64,51,50,38,35,32,30,27,25,23,23,24,23,24,23,23,24,24,24,24,23,23,23,23,23,23,23,23,23,24,23,23,23,24,23,23,23,23,23,24,24,23,24,24,24,26,46,24,24,25,24,23,24,24,24,26,32,49,51,29,24,24,24,23,24,24,25,25,24,24,23,23,23,24,23,24,23,24,23,24,23,23,23,23,23,23,23,24,24,23,24,23,23,24,23,23,23,23,24,23,23,23,23,23
24,23,23,23,24,24,23,23,23,23,24,23,23,24,23,24,23,23,24,24,24,23,23,23,23,23,23,23,24,23,24,23,23,23,24,23,24,24,24,23,23,23,23,24,23,23,23,23,23,23,24,23,24,23,23,24,23,23,24,24,24,24,24,24,24,23,23,23,23,24,23,30,93,53,31,31,31,31,29,27,27,36,28,26,25,29,34,32,35,35,31,26,24,24,23,23,24,23,23,24,23,23,23,23,23,23,24,24,23,23,24,23,24,23,24,23,23,24,23,24,23,24,23,24,24,23,24,23,23,24,24,24,24,24,24,37,40,41,40,36,34,35,36,37,39,38,41,45,55,64,63,61,75,80,71,38,29,25,25,24,23,23,24,23,23,23,24,23,23,23,23,24,23,23,23,23,23,24,24,24,23,24,24,24,23,23,24,23,23,23,23,23,23,23,23,23,23,24,30,32,24,24,24,23,24,24,27,27,39,43,36,26,24,27,31,28,29,23,25,26,24,23,23,23,23,24,23,24,24,24,23,23,24,23,24,24,24,24,23,24,23,23,23,23,23,23,24,24,23,23,24,23,23,24,24,23
23,24,23,24,23,23,23,23,24,24,23,23,23,23,23,23,23,23,24,24,23,24,23,23,24,24,24,23,23,23,23,23,23,23,23,23,23,23,23,24,23,23,24,24,24,23,24,24,23,24,23,24,23,24,23,24,23,23,24,24,23,23,24,25,24,23,23,23,24,24,25,49,103,33,30,30,30,29,28,27,26,26,25,25,25,28,29,28,33,34,28,24,24,24,24,23,23,24,24,23,23,23,24,24,24,23,23,24,23,23,24,23,23,23,23,24,23,23,23,23,23,23,24,23,24,23,23,23,23,24,24,24,23,23,24,30,37,38,38,35,34,35,35,37,38,39,41,48,69,71,64,62,69,93,81,41,28,25,23,24,23,24,24,24,24,24,23,24,23,23,23,23,23,24,23,23,23,23,23,23,24,23,23,23,23,23,23,24,23,24,24,23,24,23,23,24,24,23,24,39,27,24,24,24,23,24,27,31,32,29,27,24,23,32,30,28,24,23,24,24,24,26,42,31,24,23,23,23,23,24,23,23,24,24,24,24,23,24,23,23,23,24,24,24,23,24,23,24,24,23,24,23,24,23,23,24
24,23,24,24,23,23,23,24,24,23,24,24,24,24,23,23,23,24,24,24,23,23,24,23,23,23,23,23,23,23,23,23,24,23,24,23,23,23,24,24,23,23,23,23,24,24,23,23,23,23,23,24,23,23,23,24,23,24,24,24,23,23,24,24,23,24,23,24,23,24,25,57,79,33,30,29,28,28,28,27,26,25,26,25,25,27,26,25,25,26,26,25,24,25,26,25,24,24,24,23,23,23,23,24,24,23,23,24,23,23,23,23,23,24,24,23,23,24,23,23,24,24,23,23,24,23,23,24,24,24,23,23,23,24,24,29,41,42,43,37,34,34,36,38,39,40,41,50,79,77,65,62,70,73,68,40,26,24,23,23,24,23,24,23,23,23,24,23,23,24,23,23,24,24,23,24,23,24,24,23,24,24,23,23,23,23,23,23,23,23,24,24,23,23,24,23,24,23,24,27,42,25,24,24,24,23,25,26,25,24,28,23,27,59,37,24,25,24,24,24,24,24,26,28,24,28,30,26,24,23,23,24,24,24,24,23,24,24,23,24,24,23,23,23,23,23,23,24,23,24,23,23,23,23,24,23
24,24,23,24,23,23,23,23,24,24,24,23,24,23,24,23,23,23,23,24,23,23,23,23,24,23,24,23,23,24,24,23,23,23,23,24,24,24,24,23,24,23,23,24,23,24,24,24,24,23,23,23,24,23,24,24,23,23,24,24,23,23,24,24,23,24,23,24,24,23,26,78,54,30,29,28,28,27,27,26,26,26,25,25,25,25,25,26,27,29,29,27,26,27,28,25,25,26,29,28,25,23,24,24,24,23,23,24,23,23,24,24,23,23,24,23,24,24,24,24,24,23,24,23,24,24,23,23,23,23,23,23,24,24,23,25,31,37,41,41,35,36,38,39,41,41,41,49,75,75,64,63,67,72,65,42,25,23,24,23,23,23,24,24,24,23,23,23,24,23,23,23,23,24,23,24,23,23,24,23,23,23,23,24,23,23,24,23,24,23,24,23,23,23,23,23,23,23,23,24,31,34,24,24,24,24,24,24,24,24,26,23,29,34,39,24,23,27,27,28,28,24,27,33,47,73,71,41,32,28,24,24,24,24,23,24,26,24,23,24,24,24,23,23,23,23,24,24,23,24,23,23,23,23,23,23
24,23,23,23,23,23,23,23,23,23,23,24,24,24,23,23,23,23,23,23,24,24,23,23,23,23,23,23,24,23,23,23,23,23,23,24,24,23,23,23,23,23,24,24,23,23,23,24,24,23,23,24,23,23,23,23,23,23,23,23,23,24,23,23,23,23,23,24,24,23,28,78,53,31,28,28,28,28,28,28,27,27,26,25,25,25,26,28,30,31,30,30,28,29,32,30,27,28,34,36,28,25,24,24,24,24,23,24,24,23,24,24,23,23,24,24,24,23,23,23,24,24,24,23,24,23,23,24,23,23,23,23,24,24,23,24,25,35,39,45,42,41,41,41,42,44,43,47,57,61,61,64,67,69,59,37,23,23,23,23,23,23,24,23,23,23,24,24,23,23,24,23,23,23,24,23,23,23,24,23,23,23,23,23,23,24,23,23,24,23,23,24,23,24,23,23,24,24,23,23,23,31,32,24,24,23,23,23,24,24,24,23,24,29,25,25,24,23,24,23,24,23,24,24,25,28,37,56,55,59,49,30,24,25,24,31,29,24,24,24,24,23,23,24,23,24,23,24,23,23,23,23,24,23,24,23
24,24,24,24,23,24,23,23,23,24,24,23,23,23,23,23,23,23,23,23,23,23,23,23,23,24,23,23,23,23,24,23,24,24,24,23,24,23,24,23,23,24,24,23,24,23,23,24,24,23,23,23,23,23,24,23,23,24,23,23,23,23,23,24,23,24,23,23,23,23,24,60,103,52,30,29,30,29,29,28,27,26,26,26,26,27,28,30,32,32,32,33,33,30,32,35,33,31,37,39,33,31,33,24,24,23,23,24,23,23,24,23,24,23,23,23,23,23,24,24,23,24,23,24,23,23,24,23,23,23,23,23,24,24,24,23,24,31,46,48,50,51,44,46,47,49,49,45,57,59,62,63,66,58,51,29,24,23,23,24,24,24,23,24,23,23,24,23,23,23,23,23,23,23,23,24,23,24,24,23,24,24,23,23,23,23,23,23,23,23,24,23,24,23,24,23,24,23,23,24,23,24,24,28,31,25,24,24,24,23,24,23,24,24,24,23,24,23,23,24,23,24,23,24,23,23,24,25,25,51,74,75,53,25,28,27,24,23,28,24,24,24,24,23,23,23,23,24,23,24,24,24,23,23,23,23
24,23,23,24,24,23,23,24,23,23,23,23,23,23,23,23,23,24,23,23,23,24,24,23,23,23,23,23,23,24,23,23,24,23,23,24,24,24,24,24,23,24,23,24,23,23,24,24,24,23,24,23,23,24,24,23,23,24,23,24,24,24,24,23,24,24,24,23,24,23,23,34,125,69,34,32,31,31,30,29,28,27,26,26,27,29,29,33,33,33,34,35,32,31,33,36,36,34,35,43,40,43,37,24,23,23,23,24,23,23,23,24,24,23,24,24,23,24,24,23,24,23,24,23,23,24,23,23,23,24,23,24,24,23,23,24,24,29,49,54,47,58,52,52,54,56,51,50,62,64,67,66,65,64,40,28,24,23,23,23,23,24,23,23,24,23,23,23,24,24,24,23,23,24,23,23,23,24,23,24,23,23,23,23,23,23,23,24,23,23,23,23,23,23,23,23,23,24,23,23,24,24,24,24,33,28,33,31,32,29,26,25,24,24,23,24,25,25,24,24,24,24,23,23,23,23,24,24,24,25,25,34,58,24,24,23,23,23,24,25,24,24,23,23,23,24,24,23,23,24,24,23,24,23,24,23
23,24,24,23,24,23,23,23,23,24,24,23,23,23,23,23,24,24,23,23,24,23,23,24,24,23,23,23,24,24,24,23,23,23,23,23,23,23,23,23,23,24,23,24,24,24,23,23,23,24,23,23,24,24,23,23,24,24,24,23,23,23,24,23,23,23,24,23,24,23,23,24,91,120,44,32,33,32,31,29,28,28,27,28,28,28,31,32,36,36,34,35,30,33,36,39,39,40,38,38,37,37,32,23,23,23,24,24,23,24,23,23,24,24,23,23,23,23,24,23,23,24,24,24,23,24,24,24,24,23,23,24,24,23,23,23,23,26,41,60,52,60,58,57,58,58,53,67,59,65,72,69,74,51,40,33,24,23,23,24,23,23,23,23,23,23,24,23,24,23,23,24,23,23,24,23,23,24,23,23,23,23,23,23,24,23,24,23,24,23,23,23,23,23,23,23,23,23,23,23,24,24,23,23,23,23,23,23,24,24,25,27,26,30,27,24,30,31,24,24,24,23,23,23,23,23,24,23,24,24,23,24,36,44,27,24,23,23,23,24,23,26,26,23,23,24,24,23,23,24,23,23,23,24,23,23
23,23,23,23,23,23,24,23,24,23,24,23,23,23,23,23,23,23,24,23,24,23,24,23,23,23,23,23,24,24,24,23,23,24,24,24,24,24,23,24,24,24,23,24,24,23,24,23,23,23,23,23,23,23,24,23,23,24,23,23,23,24,23,23,23,24,23,23,23,24,23,23,40,152,83,44,36,35,33,31,29,29,31,30,30,32,33,34,34,35,34,32,30,34,38,45,40,39,45,41,36,28,24,23,23,23,23,24,23,23,23,23,23,24,23,23,24,23,24,24,24,23,23,23,23,24,23,23,24,24,23,24,23,24,23,24,24,24,55,67,63,65,64,60,60,63,69,63,62,67,67,62,56,52,45,36,27,24,23,24,23,23,23,23,24,23,23,23,24,23,24,24,23,23,24,24,23,23,23,23,24,24,24,23,23,23,24,23,23,23,23,23,23,24,23,24,23,23,24,23,23,23,23,23,24,23,23,24,23,24,24,24,24,25,24,24,25,24,24,24,23,23,23,23,23,23,23,23,24,24,24,24,24,25,29,24,23,23,23,23,23,23,24,24,23,23,23,24,23,23,23,24,23,24,23,23
23,23,23,24,24,23,24,24,24,24,23,23,23,23,24,23,23,23,24,24,23,23,24,23,23,23,24,23,23,24,23,23,23,23,23,23,23,23,23,23,23,24,23,23,23,24,23,23,24,24,23,23,23,23,23,23,23,24,24,23,24,23,23,23,23,23,24,24,24,24,23,23,24,95,151,79,56,38,33,31,29,29,30,31,33,37,34,34,36,35,34,32,31,33,38,49,43,45,51,36,30,24,23,23,23,23,24,23,23,23,23,23,23,24,24,23,24,23,23,23,23,23,24,23,23,24,23,23,24,23,23,23,24,23,23,24,23,26,68,78,71,69,65,60,63,69,70,67,63,64,61,57,48,48,39,34,30,23,24,24,23,23,24,24,23,23,23,24,23,23,23,23,23,24,23,24,24,23,23,24,24,23,23,24,23,23,23,23,23,23,23,23,23,24,23,23,23,23,23,23,23,23,23,23,24,23,24,23,23,23,23,23,23,23,23,23,23,23,24,24,24,24,24,24,24,24,23,23,24,25,23,24,24,23,23,23,23,24,24,23,23,23,23,23,23,23,23,23,23,24,23,24,24,23,23,23
24,23,23,23,23,25,24,23,24,23,23,23,24,24,24,24,24,23,23,24,23,23,23,23,24,24,23,23,23,23,24,24,23,23,23,23,24,23,23,23,24,24,23,23,23,24,23,23,23,24,24,24,24,23,24,24,23,24,23,23,24,24,24,23,24,23,23,23,23,23,24,23,24,31,143,133,138,111,56,34,29,28,28,29,32,39,40,36,38,37,36,32,33,39,44,50,45,44,50,39,25,24,23,23,23,23,23,23,23,23,24,23,24,23,23,23,23,24,23,24,23,23,24,23,24,24,23,23,24,24,23,24,23,23,23,24,24,43,71,78,73,71,67,61,61,62,65,64,66,65,50,59,49,53,44,39,30,24,24,23,24,24,30,31,24,24,23,23,23,24,23,23,23,24,24,24,23,24,23,24,23,24,23,23,23,24,23,24,23,23,23,23,23,24,24,24,23,23,24,24,24,24,23,23,23,23,23,23,23,23,23,24,23,23,23,24,24,23,24,24,24,26,31,30,26,24,23,23,24,28,24,23,23,24,23,23,23,23,23,24,23,23,24,24,24,23,24,24,24,23,24,23,24,23,23,23
23,23,24,24,23,23,23,23,24,24,23,24,23,24,23,23,24,23,24,24,23,23,23,23,24,24,23,23,23,23,24,23,23,23,23,23,23,23,24,23,24,24,23,23,23,24,24,23,23,24,23,23,23,23,23,23,23,23,24,23,23,23,24,24,23,23,24,23,23,24,24,24,24,24,57,147,173,170,158,69,33,29,29,31,33,35,40,34,38,43,38,32,39,46,49,50,43,46,46,39,24,24,23,23,23,23,23,24,23,24,23,24,23,24,23,23,23,23,23,23,23,24,23,23,23,23,24,23,24,24,23,23,23,23,23,23,26,57,68,71,71,68,64,60,59,62,62,62,59,48,54,50,56,47,46,39,30,24,23,23,23,24,45,39,23,24,23,23,23,24,23,24,23,24,24,24,24,23,24,24,23,23,23,24,23,24,24,23,24,24,24,23,24,23,23,23,23,24,23,23,23,23,23,24,23,23,23,23,23,24,24,23,24,24,23,23,23,29,30,24,27,29,30,27,24,23,23,23,24,27,25,24,24,23,24,23,24,23,24,23,24,23,24,24,23,23,25,24,23,24,23,24,23,23,23,24
24,23,23,23,23,24,23,23,23,24,24,23,23,23,23,24,24,23,23,23,24,23,24,23,24,24,23,24,23,23,23,24,23,24,23,23,23,23,23,23,24,23,23,23,23,24,24,23,23,23,23,24,24,24,23,23,23,24,23,23,23,24,23,23,23,23,23,23,23,24,24,24,23,23,24,50,91,157,160,131,76,33,30,35,36,33,29,30,33,39,40,39,46,55,52,44,46,49,47,35,24,23,23,23,24,24,24,23,23,23,23,23,23,23,23,23,24,24,23,23,23,23,23,23,23,23,24,23,23,23,24,23,24,23,23,23,29,55,63,64,64,64,63,59,58,61,60,58,49,48,44,37,35,42,37,30,25,24,23,24,26,27,45,30,23,24,23,24,23,23,23,23,24,23,23,23,23,23,24,23,24,23,24,23,24,23,23,23,24,24,23,23,23,24,23,24,24,23,23,24,24,24,23,23,24,23,24,24,24,24,23,23,24,23,23,24,26,38,36,29,29,29,31,31,27,25,23,23,24,26,32,30,23,24,24,24,23,24,24,23,23,24,23,24,23,23,24,24,24,23,23,24,24,24,24,25
24,23,23,23,24,23,23,23,24,24,23,24,24,23,24,24,24,23,23,24,24,24,23,23,23,23,23,23,24,24,24,23,23,23,23,24,24,23,24,23,23,23,23,24,23,23,23,23,23,24,24,24,24,24,24,24,24,24,24,24,24,24,23,23,23,24,23,24,24,23,24,23,24,23,24,23,24,58,153,157,150,99,53,34,34,35,29,27,29,40,48,49,44,49,49,46,50,50,42,30,24,23,23,23,24,24,23,24,24,23,23,23,23,23,23,23,24,24,23,24,23,24,24,24,24,23,23,23,24,23,23,24,24,24,23,24,34,61,62,61,62,62,61,59,57,56,58,51,52,64,65,51,33,28,25,24,24,23,23,27,40,49,52,24,23,23,24,23,24,23,23,24,23,24,23,24,23,23,23,23,23,23,23,23,23,23,23,24,23,24,23,24,24,23,23,24,23,23,24,23,23,23,23,24,24,23,23,23,23,24,24,23,23,24,24,25,26,33,39,34,35,31,31,31,31,32,26,24,24,28,36,40,23,23,23,24,23,24,23,23,24,24,24,24,23,23,24,24,23,23,24,23,23,24,27,24
23,24,23,23,23,24,24,23,23,23,23,24,23,23,23,23,24,23,23,24,23,23,24,23,23,23,23,23,24,24,23,23,23,24,23,24,23,23,24,23,24,23,23,23,24,23,23,23,24,23,23,24,24,23,23,24,24,23,23,23,23,23,23,24,23,23,23,23,23,23,23,24,23,23,23,23,23,23,107,153,157,128,77,37,34,32,29,27,29,39,44,41,40,48,54,50,49,48,36,26,24,24,24,23,23,23,23,23,23,23,23,23,23,23,23,24,24,24,23,24,23,23,24,23,23,23,24,23,24,24,23,23,23,24,23,23,25,51,63,62,65,64,62,57,56,56,57,58,63,67,64,52,29,24,23,23,23,23,24,26,45,69,46,23,24,23,23,24,23,24,23,23,23,24,24,24,23,23,23,23,24,23,23,23,23,23,23,23,23,23,23,24,23,23,24,24,23,24,23,23,24,23,23,23,24,24,24,23,24,23,23,23,24,23,25,29,28,30,35,36,37,33,32,33,31,32,30,27,26,31,44,39,26,24,23,23,23,23,23,23,23,23,23,23,23,24,23,23,24,23,24,24,23,24,23,24
23,23,24,23,24,23,23,24,23,24,23,23,23,24,23,23,24,24,23,24,24,23,23,23,23,23,23,23,24,23,24,24,23,23,23,24,24,24,24,23,23,23,23,23,23,23,24,24,24,24,24,24,23,23,23,23,23,24,24,23,23,23,23,23,23,24,23,24,23,23,23,23,23,23,23,23,24,23,73,156,153,136,73,40,32,28,27,30,32,40,37,36,39,42,53,52,55,47,45,27,23,23,24,24,23,23,24,24,23,23,23,23,23,23,24,24,23,23,24,23,23,23,23,23,24,23,23,23,23,24,23,24,23,23,24,23,24,32,54,68,71,67,62,57,56,55,55,61,63,56,47,40,25,23,24,23,24,24,24,25,41,69,31,23,24,24,24,25,24,23,24,23,24,24,23,23,24,23,23,23,23,23,24,23,23,23,24,23,24,23,23,24,24,24,24,24,23,24,24,23,23,23,23,23,23,24,23,24,24,24,24,24,25,27,30,31,33,33,34,37,36,36,35,36,33,32,32,33,28,30,40,38,31,28,24,23,23,23,23,24,23,23,23,24,24,25,23,23,23,24,23,23,23,23,24,24
23,23,23,24,23,24,23,23,24,23,23,24,23,24,23,23,23,23,23,24,23,23,24,23,24,23,23,24,24,24,24,24,23,23,23,23,23,23,24,23,23,23,23,23,24,24,23,23,23,23,23,23,24,24,23,23,24,24,23,24,24,23,24,24,23,23,24,24,23,23,23,23,23,23,23,23,24,23,68,159,165,138,61,34,30,28,27,32,38,35,35,36,39,42,49,56,57,43,27,23,24,23,23,23,23,23,24,24,23,24,23,24,23,23,23,23,23,23,23,24,24,23,24,23,23,23,23,23,23,23,24,23,24,23,24,23,23,24,43,67,76,74,66,61,57,56,60,56,49,43,36,29,27,24,24,23,23,23,24,33,45,52,24,24,23,23,23,25,24,24,24,24,24,23,24,23,24,24,23,24,23,23,23,24,24,23,23,23,24,24,23,23,23,23,23,23,24,23,24,24,23,23,23,23,23,24,23,23,23,24,28,37,35,36,34,33,34,35,37,36,39,42,42,40,36,32,30,34,32,30,33,34,32,33,25,24,23,23,23,23,23,23,24,23,23,25,26,24,24,23,24,23,23,23,23,23
24,23,24,23,24,23,24,24,24,23,23,24,23,23,23,23,23,24,24,23,23,23,24,23,23,24,24,24,24,23,24,24,23,24,24,23,23,23,23,23,23,23,23,23,24,23,23,24,24,23,23,24,23,23,24,23,23,23,23,23,23,24,24,24,24,23,24,23,23,23,24,23,23,23,24,23,23,24,75,133,168,130,38,31,29,28,27,29,36,34,36,40,42,45,48,49,32,25,23,23,23,24,23,24,23,24,24,24,24,24,23,23,24,23,23,23,24,24,23,24,23,24,23,23,23,23,24,24,23,23,24,23,23,23,24,24,24,23,33,68,73,68,65,63,60,58,60,54,55,50,34,27,27,24,24,24,23,23,24,35,50,41,24,23,24,23,23,24,23,23,23,24,23,23,24,23,24,24,24,24,23,23,23,23,23,24,24,24,24,24,24,23,23,23,23,24,23,23,23,23,23,23,23,24,23,23,23,23,24,26,32,38,45,41,39,35,36,36,37,38,41,45,46,45,37,31,29,28,29,31,31,34,35,31,28,24,23,23,23,24,24,24,24,23,24,23,24,23,23,23,23,24,24,23,24,24
23,23,23,23,23,23,23,23,23,23,24,23,24,23,24,23,23,23,23,24,24,23,23,23,23,23,23,23,24,24,23,24,24,23,23,23,24,23,24,23,23,24,23,23,23,24,23,24,23,24,23,23,23,24,23,24,24,23,23,23,23,24,24,24,24,23,23,23,24,24,24,23,23,23,24,23,24,29,100,154,160,93,41,30,29,27,26,27,32,35,43,49,52,42,27,24,23,24,24,23,23,24,24,23,23,23,23,23,23,23,24,24,23,23,24,23,23,24,23,24,23,24,24,23,24,24,24,23,23,23,24,23,23,23,23,23,24,24,31,65,66,62,60,60,59,62,59,60,62,62,36,25,25,24,23,23,23,23,24,29,34,32,24,24,23,23,23,24,24,23,23,23,23,24,23,23,23,23,23,24,23,24,23,23,23,23,24,24,23,24,23,23,23,23,23,23,23,23,23,23,23,24,24,24,23,24,23,23,24,27,33,39,41,44,41,38,38,38,39,42,42,43,41,37,31,28,26,27,28,30,31,35,40,38,31,32,24,23,23,24,23,24,24,24,23,23,24,23,24,24,23,23,24,24,24,24
23,24,23,24,23,24,23,23,23,24,23,24,23,23,23,23,23,23,23,23,23,23,24,23,24,24,24,23,23,24,24,23,23,23,24,23,23,23,23,24,24,23,23,24,24,23,23,23,23,23,23,23,23,23,24,24,23,23,24,23,23,24,23,23,23,24,23,23,23,23,24,24,23,24,23,24,24,28,104,168,155,78,35,30,28,27,26,27,32,35,46,57,52,30,24,24,23,23,24,24,23,23,23,23,23,23,23,23,24,24,23,24,23,23,23,24,23,23,24,23,23,23,24,23,24,24,23,24,24,24,23,24,23,24,24,23,23,24,28,60,62,58,55,56,59,63,70,70,74,76,41,24,23,24,24,24,24,24,24,23,24,23,23,24,23,23,23,24,24,23,23,23,24,24,24,24,24,23,24,24,23,23,23,23,23,23,23,24,23,24,23,24,23,24,23,24,24,23,23,23,24,23,23,24,23,23,23,24,23,27,34,38,41,43,41,39,39,39,40,43,46,44,41,34,28,26,25,25,27,28,31,34,38,38,34,34,29,23,23,24,23,24,23,23,23,23,23,23,23,23,24,23,23,23,23,23
23,23,23,23,24,23,24,23,23,24,23,23,23,23,23,23,24,23,24,23,24,23,24,23,23,23,24,23,24,23,23,23,23,24,24,24,23,23,24,24,24,24,24,24,23,23,23,23,23,24,23,23,23,23,24,24,24,23,24,23,23,23,24,24,24,24,23,23,23,23,24,24,24,23,23,23,23,31,123,157,100,56,30,29,27,26,26,26,29,35,42,51,51,29,24,23,23,23,24,23,23,23,23,23,24,24,23,23,24,24,24,23,24,23,24,24,24,24,23,23,23,24,23,24,24,23,23,24,23,23,23,23,23,23,24,23,24,23,24,46,53,59,52,57,66,67,68,72,79,73,42,24,23,23,23,23,24,23,23,23,24,23,23,23,24,23,23,23,23,24,23,23,24,23,23,23,24,24,23,23,24,23,24,23,24,24,24,23,23,24,24,23,24,23,23,23,24,23,24,23,23,23,24,23,23,24,24,23,23,29,34,38,40,41,40,40,38,37,38,38,39,39,36,32,27,24,24,25,27,28,30,31,32,32,33,36,32,23,24,23,23,24,24,24,23,23,23,23,24,23,24,24,24,23,23,24
23,24,24,23,24,23,23,24,23,24,24,23,23,23,24,23,23,23,23,23,23,23,23,24,23,23,23,23,23,24,24,23,23,24,23,23,24,24,24,23,23,24,24,24,24,23,23,23,23,23,23,23,23,23,24,23,23,23,23,24,23,24,24,23,24,24,24,23,24,24,24,23,23,24,24,23,23,52,149,108,61,44,29,27,26,25,26,26,28,35,40,45,45,24,24,23,24,24,23,23,24,23,23,23,23,23,24,23,24,24,23,23,23,23,24,23,23,23,23,23,23,24,23,24,24,23,24,23,23,24,23,23,23,24,24,24,23,23,23,25,42,50,52,56,65,63,68,77,94,63,33,24,24,24,24,24,24,23,24,23,23,23,24,24,23,24,23,24,24,23,24,23,24,23,24,24,24,23,23,23,23,23,23,23,23,24,24,24,24,23,23,24,23,23,23,23,23,23,23,23,23,24,23,23,24,24,23,23,23,26,33,35,38,38,38,39,37,33,33,33,34,33,31,30,28,24,25,24,27,27,29,29,28,29,30,39,39,24,24,23,24,24,24,23,24,23,24,24,24,23,23,24,24,23,24,23
23,24,23,24,24,23,23,24,24,23,23,24,24,23,23,24,23,23,23,23,23,24,24,23,24,24,24,23,24,23,23,23,23,23,23,24,24,23,23,23,23,23,23,24,23,23,23,24,23,24,24,23,23,24,24,23,24,24,23,23,23,23,23,23,24,23,23,24,23,24,24,23,23,23,23,23,23,62,138,67,47,33,39,26,26,25,26,27,29,29,28,26,24,23,24,23,23,23,23,23,23,23,23,23,24,24,23,24,24,23,23,23,23,23,23,23,23,24,23,23,24,23,24,23,23,23,23,23,23,23,23,24,23,23,24,24,24,23,24,24,34,53,55,58,61,67,71,83,86,48,24,23,24,24,23,23,23,24,24,23,23,23,23,24,23,23,23,23,23,23,23,23,23,23,23,23,23,23,23,24,24,23,24,24,24,23,24,23,24,23,23,23,23,23,24,23,24,23,24,23,23,23,23,23,23,24,23,23,24,24,32,35,38,38,36,36,32,31,31,30,29,29,29,29,29,26,31,26,27,28,27,28,28,29,34,50,41,24,24,23,24,23,24,24,24,23,23,23,23,23,24,24,23,23,24,24
24,23,23,24,24,23,24,23,24,23,24,24,23,24,23,24,23,23,24,23,24,24,23,23,23,23,23,24,24,23,24,23,24,23,23,23,23,23,23,23,23,24,23,23,24,24,23,23,23,24,24,24,23,23,23,23,23,23,23,23,24,24,23,24,24,24,24,23,23,23,23,23,24,23,24,23,24,71,125,54,44,48,39,28,25,25,25,28,29,30,28,24,23,23,23,23,23,23,23,24,23,24,23,23,24,24,24,23,23,23,23,23,24,23,24,24,24,24,23,23,23,24,23,23,23,23,24,23,23,23,23,23,23,23,23,23,23,24,23,23,24,38,60,67,66,72,70,69,46,26,23,24,23,23,24,23,23,24,23,24,23,23,23,23,23,24,24,24,23,24,23,23,24,23,24,24,24,23,23,23,23,24,23,23,23,23,24,23,24,23,24,23,23,23,24,23,23,23,23,23,24,23,24,24,23,23,23,24,23,23,28,33,36,37,35,33,29,28,27,26,25,25,26,27,29,27,33,28,29,28,27,30,31,32,39,45,31,23,23,23,23,24,23,23,23,24,23,23,23,23,23,23,24,23,23,24
24,23,23,23,24,24,23,23,23,23,23,23,23,23,23,23,24,23,23,24,23,23,23,24,23,24,23,23,23,23,23,23,24,23,24,23,23,23,24,23,24,23,23,23,24,23,23,23,23,23,24,23,24,23,23,24,24,23,23,23,23,24,23,23,24,24,24,23,24,23,23,24,23,23,23,23,23,49,126,46,44,53,35,28,26,24,24,26,28,26,24,23,24,23,24,23,23,23,23,23,23,24,23,23,23,24,23,23,24,23,23,23,23,23,23,24,24,23,24,24,23,24,24,23,24,23,24,23,23,24,23,23,23,24,24,24,23,23,23,24,24,38,53,48,53,45,44,36,24,24,24,23,24,23,24,23,23,23,23,23,24,23,24,23,24,23,23,24,23,24,23,23,24,23,23,23,24,23,24,23,24,23,23,23,23,24,24,24,24,23,24,23,24,23,23,23,24,23,24,23,23,23,23,24,23,23,23,23,23,23,29,34,34,34,31,30,25,24,23,23,23,23,24,24,28,28,34,31,26,26,26,28,31,36,48,30,24,23,23,23,23,23,23,23,23,23,23,24,24,24,23,23,23,23,24,23
24,24,23,23,23,23,24,24,23,23,23,24,23,24,24,24,24,24,23,24,23,24,23,23,23,24,23,24,24,23,24,23,23,24,23,24,23,24,23,23,23,24,24,24,24,23,24,23,23,24,24,23,23,24,24,23,23,23,23,23,24,23,23,24,24,23,24,23,24,23,23,23,24,23,24,24,25,52,110,51,39,36,29,27,26,25,24,25,26,25,24,24,23,23,23,23,24,23,23,23,24,24,24,24,23,24,23,24,23,24,23,23,23,24,23,23,23,24,24,24,24,24,23,23,23,24,23,23,23,24,23,24,23,23,24,24,23,23,23,23,23,28,29,27,26,26,24,23,23,23,23,23,23,23,23,23,24,23,24,24,23,24,23,24,24,23,24,23,24,24,23,23,23,24,23,24,23,23,24,24,23,23,23,24,23,23,23,23,24,24,23,23,24,23,24,23,23,23,23,23,23,23,24,23,23,24,24,23,23,24,27,30,27,24,24,24,23,23,23,23,23,23,23,23,25,24,29,26,25,26,26,27,31,38,47,26,24,23,24,23,23,23,24,23,23,23,23,23,23,23,24,24,23,24,24,24
23,24,24,23,23,23,23,23,23,24,23,23,23,24,23,23,23,23,24,23,23,23,23,23,23,23,24,23,24,24,23,24,23,23,23,24,23,23,24,23,24,23,23,23,23,23,24,24,23,24,24,23,24,24,24,23,23,24,23,24,23,23,23,23,23,23,23,24,23,23,23,23,23,23,23,23,28,72,89,61,36,34,29,27,26,25,24,24,24,23,24,23,24,23,23,23,23,23,24,23,23,24,24,24,24,23,24,24,24,23,23,23,24,24,24,23,23,23,23,24,23,23,23,23,23,24,23,23,24,23,23,24,23,23,23,23,23,24,24,24,23,24,23,23,23,23,23,23,23,24,23,23,24,23,23,23,23,23,23,24,24,23,23,24,23,23,24,23,24,24,24,23,23,24,23,23,23,23,23,23,24,23,24,24,23,24,24,23,23,23,24,24,24,23,23,23,23,24,23,24,23,24,23,23,23,23,23,23,24,23,23,23,23,23,24,23,24,24,23,23,23,23,24,23,23,24,24,25,27,27,27,27,33,54,42,23,23,23,23,24,23,24,23,23,23,24,23,23,23,24,23,25,24,24,24,23
23,24,23,23,23,23,24,24,23,23,24,23,23,24,24,24,23,24,23,23,23,23,23,23,24,24,23,23,23,23,23,23,23,23,23,23,24,23,23,23,23,23,24,23,23,23,23,23,24,23,24,24,24,23,24,23,23,23,23,24,23,23,23,24,24,23,23,23,24,24,23,23,24,23,23,25,33,77,66,47,34,33,29,30,30,30,26,23,23,23,24,24,24,24,23,24,23,23,23,23,23,24,23,24,24,23,24,24,24,23,23,23,24,23,23,23,23,24,23,23,23,24,23,24,24,23,24,23,24,23,24,23,23,23,23,24,23,24,23,23,23,23,24,23,24,23,23,23,24,23,24,24,24,23,23,24,23,24,23,24,23,24,23,24,23,23,23,24,24,24,23,24,23,24,24,23,23,23,23,23,23,23,24,23,23,24,23,23,23,23,23,23,24,23,24,24,23,23,24,23,23,23,23,24,23,23,23,24,23,23,24,23,23,23,24,23,24,23,23,24,24,24,23,23,23,24,23,24,28,32,34,36,47,42,31,24,23,23,24,23,23,23,24,23,23,24,23,24,24,23,23,24,26,25,25,23
24,24,24,23,23,23,24,24,23,23,23,23,24,23,23,23,24,23,24,23,23,23,24,24,24,23,24,24,23,23,24,23,23,23,24,23,23,23,23,24,23,24,23,23,24,23,23,24,23,24,23,23,23,23,24,23,23,24,23,23,24,23,24,23,23,23,24,23,24,23,23,23,24,24,23,25,36,71,50,38,33,31,27,27,27,25,24,23,23,23,24,23,23,23,24,24,24,23,23,23,23,23,24,24,23,23,23,23,23,23,23,23,23,23,23,23,23,23,24,24,24,23,24,23,23,23,23,23,23,23,23,23,24,24,23,23,23,23,23,23,24,23,23,24,24,23,24,23,24,23,23,24,24,24,24,23,23,24,23,24,23,23,24,23,24,24,24,24,23,23,23,24,24,23,23,23,23,24,23,24,23,23,23,23,24,23,24,23,23,23,23,23,24,23,23,23,24,23,24,24,24,23,24,23,24,23,23,24,24,23,23,23,24,24,23,23,23,23,23,23,24,24,24,23,24,23,24,23,24,25,25,25,25,24,23,24,23,24,23,23,23,23,23,24,23,23,23,24,23,24,23,24,34,42,31,24
24,23,24,23,23,24,24,23,24,24,23,23,23,24,23,24,24,24,23,23,24,24,24,23,24,24,23,24,24,23,24,23,23,23,23,24,23,23,24,24,24,23,23,24,23,23,24,24,23,23,23,24,24,24,24,24,23,23,24,23,23,23,23,23,23,23,23,23,23,24,23,23,24,24,23,26,40,61,52,49,33,28,26,24,23,24,23,23,23,24,23,23,23,24,24,24,24,23,24,23,24,23,24,24,24,24,23,23,23,23,23,23,23,24,23,23,23,24,23,24,23,24,23,23,24,23,24,24,23,23,24,23,24,23,23,23,23,24,23,23,23,23,23,23,23,24,23,24,23,24,23,23,23,24,23,24,23,23,23,23,23,24,24,23,23,24,24,23,23,24,24,24,23,24,23,23,24,24,23,24,23,24,23,23,23,23,23,24,23,24,24,24,24,23,23,24,24,23,24,23,23,23,24,23,23,23,23,24,24,24,23,24,23,23,23,24,23,23,24,23,23,23,23,24,23,23,23,23,23,24,23,23,23,24,23,23,23,23,24,23,23,23,24,23,24,23,23,23,24,23,24,24,29,32,23,23
23,24,23,23,23,23,23,23,23,23,24,23,23,23,23,23,24,23,24,23,23,23,23,23,23,23,23,24,23,23,23,24,23,24,23,23,23,23,23,24,23,24,24,24,24,23,23,24,24,24,23,23,24,24,23,23,24,23,24,23,24,23,23,24,24,23,23,23,23,24,23,24,23,24,23,26,43,61,61,60,50,30,24,24,24,24,24,23,23,23,23,23,24,23,23,23,24,24,23,23,23,23,23,23,24,23,23,23,24,24,24,24,23,23,23,23,23,23,23,24,23,23,24,23,24,23,24,23,24,24,24,23,24,23,24,24,23,24,24,23,23,23,24,23,23,23,23,24,23,23,23,23,23,24,24,23,23,24,23,24,23,24,23,23,23,23,24,23,23,23,23,23,24,24,24,23,23,23,23,23,24,23,23,23,24,24,24,23,24,24,24,23,24,23,23,23,23,23,23,23,24,24,23,24,24,23,23,23,24,24,23,23,23,24,23,24,24,24,23,23,24,23,24,24,23,23,24,23,24,23,24,35,36,28,23,24,24,23,23,23,23,23,23,23,23,23,23,23,23,24,41,36,26,24,24,23
23,24,23,23,23,24,24,23,23,23,23,23,24,24,23,23,24,24,24,23,24,23,24,24,23,23,23,24,24,23,24,24,23,23,24,24,23,23,24,23,23,24,24,23,23,24,23,24,24,23,23,24,24,23,24,23,24,24,23,23,24,23,24,23,23,23,24,23,23,23,23,23,24,24,23,26,45,53,55,52,34,27,24,23,24,23,23,23,23,24,23,23,23,24,24,23,23,23,23,23,23,23,23,24,23,23,23,23,23,23,23,23,24,24,23,23,23,24,23,23,23,23,24,23,24,23,24,23,23,23,23,24,23,23,23,23,24,24,23,23,23,23,23,24,23,23,24,23,23,23,23,24,24,24,23,24,24,24,23,23,23,23,24,23,23,24,23,23,23,24,23,24,23,23,23,23,23,23,24,23,24,23,23,23,23,24,23,23,24,23,23,24,23,24,23,24,24,23,23,23,24,23,23,24,24,23,23,23,23,24,23,23,23,24,23,24,23,23,24,23,23,23,23,23,24,24,23,23,23,23,24,28,35,24,23,23,24,23,23,24,24,23,23,23,23,23,23,23,24,41,45,28,24,23,23,24
23,24,24,23,24,24,23,23,24,24,23,23,24,24,24,23,23,24,23,24,23,24,24,23,23,24,24,23,24,23,24,23,23,23,23,23,23,23,23,23,24,24,23,23,24,23,24,23,23,24,23,23,23,24,24,23,23,24,23,23,23,23,24,24,23,24,24,24,23,23,23,24,23,23,24,25,47,55,49,38,33,27,23,23,23,23,24,23,24,23,24,24,23,23,23,23,23,23,23,23,23,23,24,24,23,24,23,23,23,24,23,24,23,23,24,23,23,23,24,23,23,23,23,23,24,24,23,23,24,23,24,24,24,23,24,24,23,24,23,23,24,23,24,23,24,23,23,24,24,23,23,23,24,23,23,23,24,23,24,23,23,23,24,23,23,23,24,23,23,23,24,24,23,23,23,23,23,23,24,23,24,24,24,23,24,23,24,24,23,23,23,23,23,23,23,23,23,24,24,24,23,23,23,23,23,23,23,24,23,23,24,23,23,23,24,23,24,23,24,23,23,24,23,24,23,24,24,23,23,23,23,23,23,24,24,23,23,23,23,23,23,24,23,23,23,23,24,37,52,42,24,23,23,23,23,23
23,23,24,24,23,23,24,23,23,23,23,23,23,23,23,24,23,23,23,23,23,24,23,23,23,24,23,23,23,23,24,23,23,24,23,23,24,23,23,24,23,23,24,24,23,23,23,24,24,23,24,24,23,23,24,24,23,24,23,23,23,24,23,23,24,24,23,23,24,24,24,24,23,24,25,32,52,49,41,37,25,24,23,23,23,23,23,24,23,23,23,23,23,24,24,23,23,23,23,23,23,24,24,23,24,24,24,24,23,23,24,24,23,24,23,23,23,24,23,24,24,24,23,23,23,23,23,23,23,24,23,24,24,23,23,24,23,24,24,23,23,23,23,24,24,23,24,24,24,24,23,23,23,23,24,23,23,23,24,24,23,23,23,23,23,23,23,23,23,24,23,24,24,23,24,23,23,23,23,24,23,24,24,23,23,23,23,23,24,23,23,24,23,23,23,24,24,24,24,24,23,23,24,23,24,24,23,23,24,24,24,23,23,23,23,24,23,23,24,24,24,23,24,24,23,24,24,24,23,23,23,23,23,23,23,24,23,23,23,24,24,24,23,24,24,23,30,39,40,28,24,23,24,23,24,24
23,24,24,24,24,23,23,23,23,23,23,24,23,23,23,23,23,24,24,23,24,24,23,24,24,23,23,23,24,24,24,24,23,23,24,23,24,24,23,24,23,23,24,23,24,23,23,24,23,23,23,23,23,23,23,23,24,23,24,23,24,23,23,23,24,23,23,24,23,23,23,23,23,23,25,43,55,50,46,33,27,24,24,24,23,24,24,23,23,24,24,23,24,23,23,24,23,23,24,23,23,23,23,23,23,23,23,23,23,24,23,23,24,23,24,24,23,23,23,24,23,24,23,23,23,23,23,23,24,23,24,24,23,23,24,24,23,23,24,23,24,23,24,24,24,23,23,23,23,23,23,24,23,23,24,24,23,24,23,23,23,24,23,23,23,24,24,24,24,23,23,23,24,23,23,23,23,23,23,24,23,24,23,23,24,24,23,24,24,23,23,23,23,23,24,23,23,23,23,24,23,24,24,23,23,23,23,23,24,24,24,23,23,24,23,24,24,23,24,23,24,23,23,24,24,23,24,23,24,23,24,24,24,23,24,24,24,24,23,23,24,23,23,23,24,23,23,24,24,23,24,24,23,23,23,23
24,24,23,23,23,23,23,24,23,23,24,23,23,24,24,23,24,23,23,23,23,24,23,23,24,24,23,24,23,23,23,24,23,23,23,24,23,23,23,24,23,23,23,24,23,24,24,24,23,24,23,23,23,23,23,23,24,24,23,23,24,24,23,23,24,23,23,23,23,23,24,24,23,23,27,44,55,47,42,30,25,24,23,23,23,23,24,23,23,23,23,23,24,23,23,23,23,23,23,24,23,23,24,23,23,24,24,23,24,23,23,23,24,24,23,23,23,24,24,23,24,23,24,24,24,23,24,24,24,23,23,24,24,24,23,23,23,23,23,24,23,24,24,23,24,23,23,23,23,24,24,23,23,23,23,23,23,23,23,24,23,24,23,23,23,24,23,23,24,23,24,23,24,23,23,23,24,24,23,24,23,24,23,24,23,23,24,24,23,23,23,24,23,24,23,24,23,24,24,23,24,23,24,23,23,23,23,23,23,24,24,23,23,23,23,23,24,23,23,23,24,23,23,24,23,23,23,24,23,23,23,24,23,23,24,23,23,23,23,23,24,23,23,24,23,24,23,24,23,24,23,24,24,23,23,23
23,23,24,23,24,23,23,23,23,23,23,23,23,24,23,24,23,24,23,23,23,23,23,23,24,24,23,24,24,24,24,23,23,24,24,23,23,23,23,24,23,23,23,23,24,23,23,24,23,24,24,24,23,23,24,23,23,23,24,23,24,23,24,24,23,24,24,23,23,24,23,24,23,24,27,48,46,39,31,25,23,23,23,23,23,23,23,23,24,23,23,23,23,24,24,23,23,24,24,23,24,23,23,23,23,24,23,23,23,24,24,24,23,24,23,23,23,24,24,23,23,24,24,24,23,24,23,24,24,23,24,23,23,24,24,23,23,24,23,24,24,23,24,23,23,23,23,23,23,24,23,23,23,23,23,23,23,23,23,23,24,23,24,23,24,24,24,23,23,24,23,23,23,24,24,23,24,25,23,23,23,24,23,23,23,23,23,24,23,23,23,23,23,23,23,23,24,24,24,23,23,23,23,23,24,23,23,23,23,23,23,23,23,24,23,24,23,23,24,23,23,23,24,24,24,23,23,23,23,24,24,23,23,23,23,23,23,24,24,23,23,23,23,23,23,23,23,23,23,23,23,23,24,23,23,23
23,24,24,24,24,24,24,24,23,24,24,24,24,23,23,23,24,24,23,23,24,23,23,23,23,23,23,23,23,24,23,23,23,24,24,24,24,23,24,24,24,23,24,23,23,23,23,23,23,23,24,23,23,23,24,23,24,24,24,23,23,23,24,23,24,24,24,23,24,24,24,23,23,23,25,34,38,33,28,23,23,23,24,23,24,24,24,24,23,24,24,23,23,24,24,23,24,24,23,23,23,23,24,23,23,24,24,24,23,24,23,24,23,23,24,23,23,24,24,23,23,23,23,24,23,24,24,23,23,23,23,23,24,23,23,24,23,24,23,24,23,23,23,23,24,23,23,23,24,24,24,23,24,23,23,24,23,23,23,23,24,23,23,24,24,23,24,23,23,24,23,24,23,24,23,24,24,23,24,24,23,24,23,24,24,23,23,24,23,24,24,23,24,23,23,23,23,24,23,23,23,23,23,24,23,23,24,23,23,23,23,23,24,24,24,23,23,23,23,24,23,23,24,24,23,23,23,23,24,24,23,23,23,24,23,23,24,23,23,23,23,23,24,23,23,23,24,24,24,23,24,23,24,23,23,23
24,24,24,23,23,24,24,23,23,23,23,23,24,23,24,23,24,24,23,23,24,23,24,23,24,24,23,23,23,23,23,23,24,23,24,23,23,23,23,23,24,24,23,24,23,23,23,23,24,23,23,23,23,24,23,24,24,23,24,23,23,23,23,23,23,23,24,24,24,23,23,23,23,23,24,26,32,28,27,24,24,23,24,24,23,23,23,23,23,23,24,23,24,23,23,24,23,24,23,24,23,24,23,24,24,23,23,24,24,24,24,24,23,23,23,23,24,23,23,24,23,24,23,23,23,23,23,23,23,24,24,23,24,24,23,23,23,24,23,24,23,24,23,24,23,23,23,23,24,23,24,23,23,24,23,24,23,23,24,24,23,23,23,24,23,24,23,23,23,23,23,23,24,23,23,23,23,24,24,23,24,24,23,23,23,23,24,23,23,24,23,23,24,24,23,23,24,23,24,23,24,23,24,24,23,23,24,24,23,24,24,24,23,23,24,23,24,23,24,23,24,24,23,23,23,23,24,23,23,23,24,23,24,24,23,24,24,23,23,24,23,23,23,23,24,24,23,24,23,23,23,23,24,23,24,23
24,24,23,23,23,24,23,23,23,23,24,23,24,23,23,24,23,24,24,23,23,24,23,24,23,24,23,23,23,23,23,23,23,24,23,23,23,23,23,24,23,24,24,23,23,23,23,23,23,24,23,23,23,24,24,24,23,23,23,24,24,24,24,24,23,24,23,23,24,24,24,23,23,23,23,23,27,29,33,31,26,24,23,23,23,23,24,23,23,24,24,24,23,24,24,23,23,23,24,23,23,25,25,24,24,23,23,24,24,23,24,23,23,24,23,23,24,23,23,24,23,23,23,23,23,23,24,24,23,23,23,23,24,23,24,23,23,24,24,23,24,23,23,23,23,24,23,23,23,23,24,24,24,23,24,23,24,24,24,23,23,23,23,24,24,24,24,24,24,23,24,23,24,23,23,23,23,23,23,23,24,24,23,23,24,23,24,23,23,23,23,24,23,23,24,23,23,23,23,24,23,23,23,24,24,23,23,23,24,23,23,24,24,23,23,23,23,24,24,23,23,23,23,23,23,24,24,24,23,23,23,24,24,23,23,23,23,23,23,23,24,23,24,24,24,24,24,23,23,24,24,23,23,23,23,23
23,23,24,24,23,23,23,23,23,24,23,23,23,24,23,23,24,24,23,23,23,24,24,23,23,24,24,23,24,23,23,23,24,23,23,23,23,23,24,24,23,23,23,24,23,24,24,23,23,23,23,23,24,23,23,23,23,23,24,23,23,23,24,23,23,24,24,24,24,24,23,23,24,23,24,23,23,24,26,26,25,24,23,23,24,23,24,24,23,24,24,23,24,24,23,23,24,23,23,24,23,23,24,23,23,24,23,23,23,23,24,24,24,24,23,23,23,23,23,23,23,23,24,24,23,24,23,23,23,23,24,24,23,23,23,24,23,23,23,23,24,23,23,23,24,24,23,23,23,24,24,23,23,23,23,23,23,23,24,24,23,23,23,24,23,23,24,24,24,23,23,24,23,24,23,23,24,24,23,24,23,24,24,23,23,23,24,23,23,24,23,23,24,23,24,23,24,23,23,23,23,23,24,23,23,23,23,23,23,24,23,23,23,23,24,24,23,23,23,24,23,24,23,24,24,24,23,24,23,23,23,23,23,24,23,24,23,23,23,23,23,24,24,23,23,23,24,23,24,24,24,24,23,23,24,23
24,23,23,23,23,24,23,23,23,24,23,23,24,23,23,24,24,23,24,24,23,23,23,23,24,23,23,23,24,23,23,24,24,24,23,23,23,24,24,23,23,23,23,24,23,23,23,24,24,24,23,23,23,23,24,23,23,23,23,23,24,23,24,23,24,24,23,24,24,24,24,23,24,23,23,23,24,23,24,23,23,23,24,23,24,24,24,24,23,23,23,23,23,23,23,24,23,23,23,24,24,24,24,24,23,23,23,23,24,24,24,24,23,23,23,24,24,23,23,23,24,23,23,24,24,23,24,23,24,23,24,23,24,23,23,24,24,23,23,23,24,23,23,23,23,23,23,24,24,24,23,23,24,23,23,23,24,24,24,23,24,24,23,23,23,23,23,24,23,23,23,23,24,23,23,23,24,24,23,24,24,23,24,24,24,23,23,23,23,23,23,24,23,23,23,23,24,23,24,23,24,23,23,23,24,24,24,23,23,24,24,23,23,24,24,24,23,23,24,24,23,23,23,24,24,23,24,23,23,24,24,23,23,23,24,24,23,24,23,24,24,23,23,24,23,24,24,23,23,23,23,23,24,23,24,23
23,24,23,23,23,24,24,23,23,23,24,24,24,23,23,23,23,24,24,24,23,23,24,23,23,23,23,24,23,23,24,23,23,23,23,23,23,24,23,23,24,24,24,24,24,23,24,23,23,23,23,24,24,23,24,23,23,23,24,23,24,24,24,24,23,23,24,24,23,23,23,23,23,23,23,24,24,23,24,23,24,24,24,23,23,23,23,24,23,23,23,23,24,23,23,23,23,24,24,24,23,24,24,23,23,23,23,23,23,23,23,23,24,23,24,23,23,24,24,23,23,23,23,24,23,23,24,23,24,23,23,23,23,23,23,23,24,23,23,24,24,24,23,23,24,24,23,24,23,23,24,23,23,23,24,23,23,23,24,23,23,23,23,23,23,23,23,24,23,23,24,24,23,24,23,23,23,24,24,23,23,24,24,24,23,23,24,23,24,24,23,23,23,23,23,23,24,24,23,24,24,23,23,24,24,24,23,24,23,23,24,23,24,23,24,23,23,24,23,24,23,24,23,24,24,24,23,23,23,23,24,23,23,24,23,23,23,23,24,23,23,24,24,24,23,24,23,23,23,23,23,24,24,23,24,24
23,23,23,24,24,23,23,23,24,24,24,24,23,24,23,24,24,23,23,23,23,23,23,23,23,23,23,24,24,23,24,24,23,23,24,23,24,24,23,24,23,23,23,24,24,24,24,24,23,23,24,23,23,23,23,23,24,23,23,24,24,24,24,23,23,23,23,23,23,24,24,23,23,24,24,23,23,23,23,23,24,23,24,24,24,24,23,23,24,23,23,23,24,24,24,23,23,23,23,23,24,23,23,24,23,23,23,24,23,24,23,24,24,23,24,23,24,23,24,24,24,23,23,23,24,24,23,23,24,24,24,23,24,23,23,24,23,24,23,23,23,24,23,23,23,23,24,24,24,23,23,23,23,23,23,23,23,23,23,23,23,24,24,23,23,24,23,23,24,24,23,24,23,23,23,24,24,23,23,24,23,23,24,23,24,23,23,24,24,24,24,24,23,24,23,24,24,24,23,23,24,23,23,24,23,24,24,23,24,23,23,24,24,24,24,24,23,23,23,23,23,24,23,23,23,23,23,23,23,23,24,23,23,24,24,24,24,24,23,24,23,23,23,23,23,23,24,23,23,24,23,23,23,23,24,24
23,23,23,23,23,24,23,24,23,23,24,23,24,24,24,24,24,24,23,23,24,23,24,23,24,24,23,23,24,24,23,23,24,23,23,23,23,24,23,23,23,24,23,24,24,24,23,23,24,24,23,23,24,23,23,23,24,24,23,23,23,24,23,24,23,23,24,23,23,23,24,24,23,23,24,23,24,23,23,24,23,23,23,23,23,23,23,23,24,23,23,24,24,23,24,24,24,23,24,23,23,24,24,23,23,23,24,23,24,23,23,23,23,23,23,23,23,24,23,23,23,23,23,24,24,23,24,23,24,23,23,23,24,24,24,24,23,24,23,23,23,24,24,23,24,24,23,23,23,23,23,23,23,24,24,23,24,24,23,24,23,24,24,24,23,24,23,23,23,23,24,23,24,24,23,23,23,24,23,23,23,24,24,23,24,23,24,23,23,23,24,23,23,24,23,23,24,24,24,23,24,24,23,23,24,24,23,24,23,23,23,23,23,23,24,24,24,23,24,23,23,24,23,23,23,23,24,23,23,23,24,23,24,24,24,24,23,23,23,24,24,24,23,23,23,23,23,23,23,23,24,23,24,23,24,23
24,23,23,23,24,24,23,23,23,23,23,23,23,23,24,23,24,23,23,24,24,24,24,23,23,23,24,23,23,23,24,23,23,23,23,23,24,24,23,23,23,23,23,23,24,24,23,23,23,23,23,24,23,23,23,23,24,23,24,23,23,23,24,23,23,23,23,23,23,24,24,23,23,24,23,23,23,23,23,23,23,24,23,24,23,24,24,24,24,24,23,23,23,23,23,24,23,24,24,23,23,23,23,23,24,23,24,23,23,23,24,24,24,23,24,24,23,24,23,24,23,23,23,24,23,23,23,23,23,23,23,24,24,24,23,24,24,24,23,24,23,23,23,23,24,23,23,23,23,23,24,23,23,23,23,23,23,24,24,23,23,23,23,24,24,23,23,23,24,23,23,23,24,24,23,24,23,23,23,23,24,23,24,24,23,24,24,23,23,24,23,23,24,23,23,23,23,23,23,24,24,23,24,24,23,23,24,23,23,24,23,24,24,23,24,24,23,24,24,24,23,23,23,23,24,24,23,23,23,24,23,24,23,23,23,24,23,24,24,23,23,23,23,24,23,23,23,23,23,23,23,24,24,24,23,23
24,23,23,23,23,23,24,24,24,23,23,23,23,24,24,23,24,23,23,24,23,23,23,24,23,24,23,23,23,23,24,23,23,23,23,23,23,23,24,24,23,23,23,23,23,23,23,24,23,24,24,24,23,23,24,24,24,23,24,23,23,23,24,23,23,23,23,24,24,24,23,23,23,24,23,23,23,23,23,24,23,23,26,26,32,37,31,26,24,23,24,24,23,23,24,24,24,24,23,23,23,23,23,23,23,23,23,24,24,24,24,23,24,23,24,23,23,23,23,23,24,23,24,23,23,24,23,23,23,24,24,24,24,24,23,23,23,24,23,23,23,23,24,24,24,24,23,23,23,23,23,23,23,23,24,24,23,23,23,23,23,23,24,23,23,23,24,24,23,23,24,23,24,23,24,24,23,23,23,24,23,24,23,23,23,23,24,23,23,24,23,23,23,23,24,24,23,23,23,23,24,23,23,24,24,23,23,24,23,24,23,23,24,24,24,24,23,23,24,24,23,23,23,23,24,24,24,23,23,23,23,23,23,24,23,23,24,23,23,23,23,23,24,23,24,23,24,24,23,23,23,24,23,24,23,24
24,23,23,24,24,23,24,23,23,23,24,23,23,24,23,24,23,24,23,23,24,23,23,23,23,23,24,23,23,23,24,23,23,23,23,24,23,23,24,24,23,23,23,23,23,23,23,23,24,23,23,23,23,23,23,23,23,23,23,24,23,24,23,24,23,23,24,24,23,23,24,24,23,24,24,24,24,23,23,24,23,24,39,45,28,24,23,23,23,23,24,24,23,24,24,23,23,23,23,23,24,23,23,23,24,23,23,24,23,24,23,24,23,24,24,23,23,23,23,23,24,23,23,23,23,24,23,23,23,23,24,23,24,23,23,23,24,24,23,23,23,24,23,23,23,23,23,23,23,23,24,24,23,23,23,23,24,24,23,24,23,23,23,24,23,25,25,24,23,23,23,23,23,23,23,23,23,23,23,23,24,23,24,24,24,23,23,23,24,23,23,24,23,24,24,23,23,23,23,24,24,25,23,24,24,24,24,25,26,23,23,23,24,24,23,24,23,23,24,23,23,23,24,24,24,23,23,23,24,23,23,23,24,24,24,23,24,24,23,24,23,23,24,24,23,24,23,23,23,23,23,24,24,23,24,23
23,23,23,23,24,23,23,23,23,24,23,23,24,24,23,23,24,24,23,23,24,24,24,23,23,23,23,23,24,23,24,23,23,24,24,23,23,24,24,23,23,23,24,23,24,24,23,23,23,23,24,23,23,23,23,23,23,24,23,24,24,23,23,24,23,24,23,24,23,24,23,24,23,23,24,23,23,23,24,28,32,52,34,24,24,23,23,24,24,23,23,23,24,23,23,23,23,24,24,23,23,24,23,23,23,23,23,23,24,23,23,23,23,23,23,24,24,23,23,23,23,23,23,23,24,23,23,24,23,24,23,24,23,24,24,23,24,24,24,23,23,24,23,24,23,24,23,24,23,23,23,24,24,24,24,24,24,23,24,24,23,24,24,27,42,60,70,50,30,26,24,23,24,23,23,24,23,24,23,24,24,23,23,24,23,23,23,24,27,29,33,35,41,45,44,44,45,47,41,48,65,69,66,58,44,36,35,49,55,32,26,28,26,27,30,35,37,43,33,30,39,54,60,54,54,52,48,43,38,33,27,23,23,23,24,24,23,24,23,23,23,23,24,24,23,23,23,24,23,24,23,23,23,24,24,23
24,23,24,23,23,24,24,24,23,23,23,23,24,24,24,23,23,23,23,23,23,23,23,23,23,23,23,24,24,23,23,24,24,23,23,24,23,24,23,23,23,24,24,23,24,24,23,23,24,24,23,24,23,23,24,23,24,24,23,24,23,24,23,24,24,24,23,23,24,24,23,23,24,24,23,23,23,24,24,25,43,40,25,23,23,23,23,23,23,23,24,23,23,23,23,23,23,23,23,24,23,23,24,24,23,23,23,23,23,24,24,23,24,23,24,23,23,24,23,24,23,23,23,24,24,23,23,24,24,24,24,23,23,24,23,23,23,23,23,24,23,24,23,23,23,23,24,23,24,24,23,24,24,24,23,23,24,31,41,50,55,58,51,67,81,88,88,76,79,79,69,67,64,58,52,47,42,30,23,23,24,23,23,25,38,50,55,62,71,74,74,77,83,87,89,90,92,91,87,86,89,93,94,93,89,85,80,74,69,66,67,67,66,70,76,81,85,85,82,79,80,84,91,95,95,94,91,84,75,62,48,46,31,30,31,27,25,27,24,24,24,24,23,23,23,23,24,24,23,23,24,23,23,23,23,23
24,24,23,23,23,24,23,23,24,24,23,23,23,23,23,23,23,23,23,23,23,24,23,24,23,23,23,24,24,24,23,23,23,24,23,24,23,23,23,24,24,24,23,23,23,23,24,23,23,24,23,23,23,23,24,23,24,23,23,23,23,23,23,23,23,23,24,23,23,23,24,23,23,24,25,24,25,48,39,31,53,81,72,34,23,24,23,23,23,23,24,24,24,24,23,24,24,23,24,23,23,23,23,24,24,24,23,23,24,24,24,23,23,24,23,23,23,24,24,23,23,23,24,24,24,23,24,23,23,24,23,23,23,23,23,24,23,24,24,24,23,23,23,23,23,23,24,23,23,24,24,33,42,36,34,28,46,68,80,90,95,95,92,94,101,107,109,111,110,109,105,100,92,88,77,60,35,24,23,24,30,34,45,59,74,86,93,96,100,102,103,104,106,109,111,112,112,109,107,106,107,107,107,105,103,103,102,100,97,95,96,96,96,98,100,102,105,106,106,104,104,106,108,108,106,105,105,101,96,88,81,77,70,69,66,60,59,59,57,55,52,38,24,24,23,23,23,23,23,23,23,24,23,23,24,23
24,23,24,23,23,23,23,23,24,23,24,24,23,23,24,23,23,24,23,23,23,23,24,23,24,23,24,24,23,23,23,24,23,24,23,23,23,24,23,23,23,23,23,24,23,24,24,23,23,23,23,23,24,24,23,24,24,23,23,23,24,23,24,24,23,23,23,23,24,24,24,24,24,24,24,25,27,34,49,31,52,76,86,57,28,23,24,24,24,23,23,24,23,23,23,23,23,23,23,23,23,23,23,23,23,24,24,23,24,23,23,23,23,24,23,23,24,24,23,24,26,27,25,29,29,27,27,25,28,34,41,43,44,43,47,51,49,49,48,50,48,43,38,39,37,36,33,37,43,53,59,65,72,80,84,79,79,88,94,100,106,108,110,114,116,118,121,123,119,115,111,103,94,86,75,59,32,24,25,39,67,82,87,93,101,107,111,113,115,117,119,120,122,124,125,124,123,122,120,119,118,117,115,113,112,112,113,113,113,111,111,111,111,112,114,116,118,119,120,119,119,118,117,114,113,111,109,105,101,98,95,92,90,88,86,84,84,84,85,87,90,86,47,44,47,50,54,44,30,25,23,23,23,23,23,24
23,24,23,23,23,23,24,23,24,23,23,24,24,24,23,24,23,24,23,24,24,23,23,23,23,23,23,24,23,23,23,23,23,23,23,23,24,23,23,23,24,24,23,24,23,23,23,23,23,24,24,23,23,24,25,25,27,29,28,26,24,24,24,24,24,24,23,23,24,23,24,24,26,24,25,25,25,27,31,26,40,68,81,61,35,24,23,24,24,23,24,23,24,23,23,24,24,24,23,23,23,23,23,23,23,24,24,23,23,23,23,23,24,24,23,23,23,24,24,28,40,53,60,71,78,71,64,62,79,91,101,110,113,110,111,112,116,112,107,105,104,96,91,88,96,103,101,93,92,90,94,99,102,109,114,114,114,115,116,118,119,120,124,126,127,127,126,122,117,112,106,94,85,73,57,37,32,43,55,67,78,91,98,106,112,116,120,124,127,129,131,133,135,136,136,135,134,134,132,130,128,126,123,121,119,119,119,119,120,120,121,121,122,122,124,125,127,128,129,129,127,125,123,120,116,111,110,109,106,103,101,99,98,98,99,99,99,98,99,99,100,96,83,70,84,96,84,70,58,26,24,23,24,23,23,24
24,23,23,23,23,24,24,23,24,24,24,24,23,24,24,24,23,23,23,23,24,24,23,23,24,24,24,23,23,23,24,23,23,24,24,23,23,27,30,25,24,28,25,25,24,24,27,24,25,25,23,23,23,24,24,26,30,37,43,45,52,55,52,52,54,51,49,45,40,35,40,47,40,36,41,41,49,54,59,70,81,80,71,53,30,24,24,23,23,23,24,23,23,23,24,24,23,24,23,24,23,23,24,23,24,23,23,23,24,23,23,23,23,23,23,24,27,37,43,51,61,74,85,93,103,107,110,108,108,114,118,122,127,130,132,133,135,135,134,133,133,133,133,133,134,135,134,133,128,124,123,124,126,128,130,132,133,133,133,133,133,133,132,132,130,127,123,117,112,107,100,93,83,69,59,55,63,74,84,91,94,99,107,112,117,121,126,132,134,136,138,140,142,143,143,141,141,140,139,138,137,134,131,129,127,125,124,124,125,125,127,128,129,129,130,130,131,132,132,131,129,126,124,122,120,117,115,114,112,110,108,106,106,106,105,103,100,99,96,95,94,91,88,97,75,52,32,24,24,23,23,23,23,23,23,23
23,23,23,23,23,23,24,23,23,24,23,23,23,23,23,23,23,23,23,24,23,24,23,23,23,25,29,27,33,39,43,48,47,55,55,54,58,61,61,60,59,60,61,59,58,56,47,42,38,39,32,30,30,33,33,31,29,35,46,50,51,52,54,57,61,65,66,63,59,55,52,49,44,42,46,57,63,66,71,75,69,52,35,26,23,24,23,23,23,24,24,23,23,24,23,23,24,23,24,24,23,23,23,23,23,23,23,23,23,24,24,25,25,26,29,39,50,61,73,87,98,104,108,110,113,115,117,120,121,122,122,125,128,131,133,135,137,138,139,140,141,141,142,143,144,144,144,144,143,141,141,141,141,141,142,142,142,143,142,142,141,140,138,135,133,129,126,121,116,110,105,100,97,92,88,87,87,89,92,97,102,107,111,115,121,126,131,135,137,138,140,142,145,147,147,146,146,144,143,142,140,139,136,134,132,131,130,129,129,129,130,131,131,131,131,132,132,132,131,128,126,124,122,121,119,117,116,114,113,112,111,109,108,107,106,104,101,96,90,84,79,70,58,36,24,24,24,23,23,24,23,23,23,23,23,23
24,23,24,23,24,23,23,23,23,24,23,24,24,24,23,24,25,26,25,23,24,24,26,25,34,50,62,66,71,78,82,89,93,94,94,95,97,97,99,98,96,91,87,82,79,75,70,67,68,62,61,60,60,61,62,63,62,61,61,62,64,65,66,67,67,65,61,56,54,51,50,48,36,26,28,31,36,36,32,27,24,23,23,24,23,23,23,23,23,24,23,23,24,23,23,24,23,23,24,23,24,24,23,23,24,25,31,38,46,55,63,67,69,71,74,77,80,84,90,95,98,101,102,104,106,108,110,112,115,118,122,124,126,127,128,130,132,134,135,136,137,138,138,140,143,144,145,146,147,147,148,148,149,149,149,149,149,148,146,145,144,143,141,139,137,134,131,127,124,122,119,117,114,113,111,109,109,109,110,112,113,115,118,121,124,128,131,134,138,141,142,145,147,148,149,149,149,148,146,144,143,142,141,139,137,136,135,134,133,133,132,131,131,130,130,129,128,128,127,126,123,121,119,118,116,115,114,113,111,111,110,109,108,108,107,106,103,102,99,97,94,86,67,38,24,23,25,23,24,23,23,23,24,23,24,23
23,23,24,24,23,24,24,23,23,23,24,23,23,23,23,24,33,37,38,41,42,39,42,46,45,51,56,58,61,65,68,71,73,76,79,82,82,81,80,81,82,81,81,81,80,79,77,75,73,73,73,73,73,74,75,76,76,78,78,79,79,79,79,79,80,89,93,64,36,35,36,35,33,29,28,26,23,23,24,24,24,23,24,23,24,23,24,23,23,24,23,23,25,28,28,27,24,24,23,23,23,24,26,34,45,52,56,56,54,54,57,62,68,73,77,79,80,82,84,87,91,93,95,98,101,103,105,107,109,111,114,117,118,120,121,123,126,128,130,131,133,134,135,136,137,139,140,141,142,143,144,146,147,148,148,148,148,147,146,145,144,143,143,143,142,140,138,136,134,133,132,131,131,131,131,131,132,132,132,132,132,133,133,134,135,137,139,141,143,144,146,147,148,149,149,149,149,148,147,146,144,143,142,141,139,138,137,136,135,134,132,131,130,129,127,126,125,124,123,122,120,118,116,114,113,112,111,109,109,108,107,106,106,105,104,103,101,99,96,94,93,85,70,68,42,28,29,30,25,23,23,23,24,23,24,24
23,24,23,24,24,24,24,23,23,23,23,24,27,28,26,24,24,23,24,26,28,32,36,38,40,40,40,40,40,42,44,48,53,58,62,64,68,70,72,73,74,74,76,77,79,80,82,83,83,84,86,87,88,89,90,91,92,91,90,90,91,92,92,92,88,84,82,70,55,41,32,31,30,26,24,23,23,26,27,24,23,24,23,24,23,24,23,24,23,24,23,24,33,42,45,44,37,25,24,24,24,24,24,25,27,27,28,35,40,43,47,50,52,55,60,66,70,73,77,83,86,91,95,98,99,100,101,103,104,106,109,111,113,115,117,118,121,123,125,126,127,128,130,131,132,133,135,136,137,138,139,141,143,143,144,144,145,146,147,147,147,147,147,147,147,146,145,144,143,143,143,143,144,145,146,147,148,148,148,149,149,150,150,151,151,152,152,151,151,151,151,151,151,151,150,150,149,148,147,145,144,142,140,139,138,137,136,135,134,132,130,129,128,126,124,123,122,121,121,120,118,116,113,111,109,108,106,104,103,102,101,101,100,98,96,94,91,90,86,76,69,53,31,24,24,23,24,23,23,23,24,24,23,23,24,24
23,23,23,23,24,24,24,23,23,24,24,23,24,23,23,23,23,25,26,27,27,28,29,31,32,33,34,36,38,39,41,43,47,50,52,54,56,59,61,63,65,67,69,71,73,74,76,79,82,84,86,88,90,92,94,95,97,99,99,99,97,94,91,88,84,80,74,68,65,61,54,49,41,33,27,26,26,27,26,25,24,23,23,24,23,24,24,23,23,24,27,28,28,27,27,26,24,23,24,26,28,30,32,33,33,37,42,52,59,60,62,62,65,67,72,76,78,79,81,83,86,88,90,92,94,96,97,98,100,102,104,106,107,109,110,111,112,114,115,117,118,120,121,123,124,126,128,130,131,133,135,136,138,139,140,142,142,144,146,147,147,148,148,149,149,149,150,151,151,151,152,153,154,154,155,155,156,156,157,157,158,158,159,159,159,158,158,156,155,154,152,151,150,149,148,148,147,146,144,142,140,139,138,138,136,135,134,133,132,131,130,128,127,125,123,122,120,119,118,117,115,114,112,110,108,107,105,103,101,100,99,97,95,91,88,82,74,67,65,71,73,44,28,23,24,24,24,23,24,24,23,24,23,24,24,23
23,23,23,24,23,24,23,24,23,24,23,23,23,23,23,24,23,24,24,27,31,33,35,35,34,34,35,37,38,40,42,43,43,44,46,48,49,50,51,53,54,55,56,59,63,67,69,72,76,80,83,86,91,95,97,97,95,94,92,91,90,88,85,82,80,76,72,69,65,60,56,52,48,43,39,38,37,38,36,33,30,27,25,24,23,23,24,25,29,31,36,40,43,38,31,28,28,31,42,53,60,64,66,67,68,69,72,74,74,74,74,75,77,79,81,83,84,87,89,90,90,91,92,92,93,94,95,96,98,100,102,103,105,106,107,107,108,108,109,110,110,111,112,113,115,117,119,120,122,123,125,127,129,131,133,135,137,138,139,140,141,143,144,145,146,147,148,149,149,150,151,152,153,154,154,155,156,156,156,156,156,156,155,154,153,152,151,150,149,148,147,146,146,145,144,144,143,141,140,139,137,136,135,134,133,133,131,130,127,126,125,125,124,123,122,121,119,118,117,116,115,114,113,111,110,108,106,105,104,103,102,101,100,98,97,94,93,92,90,86,78,68,63,47,31,33,27,23,23,23,23,24,24,23,24,24
