127,127,120,101,80,70,74,88,107,118,121,122,126,129,133,135,135,134,133,131,128,125,120,113,107,103,100,94,82,73,67,67,69,75,84,94,110,123,128,130,134,140,143,144,145,152,162,172,177,176,160,131,105,85,67,57,47,36,27,20,17,15,15,17,20,24,29,36,43,53,67,86,108,129,152,172,185,191,193,190,183,175,167,158,149,139,131,128,128,128,132,137,143,146,143,143,144,144,144,143,144,144,146,153,156,155,151,145,144,144,143,142,140,138,138,139,141,143,144,145,145,145,144,144,143,143,140,134,125,114,108,105,105,107,109,112,117,126,133,140,143,144,144,144,144,143,144,144,144,144,144,144,143,142,139,135,132,127,123,129,133,137,136,137,143,147,150,153,147,145,151,144,149,158,156,150,147,149,150,150,150,150,148,144,143,141,142,143,143,142,135,130,128,132,136,141,140,133,124,115,110,115,123,126,121,124,130,135,140,142,145,151,147,143,140,139,136,132,127,125,124,124,122,120,122,123,125,131,135,132,131,132,138,142,131,109,88,73,67,70,76,81,87,98,109,115,125,136,139,136,134,136,138,141,139,132
131,130,116,87,60,47,51,70,99,121,128,129,129,131,133,135,136,137,136,135,133,129,121,111,103,97,94,90,82,76,73,74,78,85,93,104,116,118,116,119,127,135,143,147,152,162,173,179,181,175,151,122,95,74,59,48,37,26,18,13,11,10,10,11,13,15,20,27,37,47,60,75,94,118,147,171,187,193,193,187,177,166,158,152,143,136,129,127,125,126,128,131,135,144,143,144,144,144,144,142,143,144,145,150,153,152,153,149,144,144,144,144,144,145,147,149,150,147,152,152,151,150,148,145,144,143,140,131,118,111,107,104,104,105,106,107,110,117,128,136,140,143,144,143,143,143,143,144,144,145,146,149,149,147,145,142,138,135,134,136,139,139,132,137,139,141,143,143,143,144,143,139,145,149,151,147,144,144,145,145,145,145,144,144,144,140,142,143,143,142,135,128,127,129,131,135,132,125,115,105,108,116,122,123,121,126,130,137,144,148,153,155,149,141,136,133,130,126,124,122,121,119,117,121,124,128,134,136,133,128,123,128,139,150,146,125,95,75,65,67,70,77,89,102,113,120,128,132,134,136,137,138,139,140,138,135
138,137,121,88,59,46,48,69,101,127,135,134,131,129,128,129,131,133,133,133,130,124,116,106,96,90,87,85,82,81,81,86,92,99,105,107,109,107,105,110,121,133,143,148,154,166,176,182,180,168,143,114,89,68,54,42,30,20,13,10,10,8,8,8,10,11,17,24,36,47,58,69,89,119,153,178,194,195,191,179,164,152,144,139,136,131,128,124,122,122,125,129,134,143,145,144,144,144,144,144,144,144,144,147,147,147,152,152,147,144,144,144,145,151,152,152,151,149,149,150,151,152,150,146,145,146,143,134,122,116,109,108,109,109,108,108,110,115,124,132,136,139,143,143,145,148,148,147,145,146,147,146,145,146,144,142,137,133,133,135,137,134,133,133,135,137,139,142,143,144,144,144,144,144,146,145,144,144,143,144,144,144,144,144,144,143,139,143,143,140,134,129,128,127,128,127,121,113,105,104,110,117,122,123,123,128,134,146,160,159,150,146,148,147,135,128,127,125,123,120,117,118,121,126,130,134,131,132,135,130,124,122,128,139,144,136,112,88,73,68,66,70,88,109,122,126,128,128,128,129,134,137,139,139,138,138
142,142,130,105,78,64,67,87,113,131,137,135,130,127,124,125,128,128,128,127,122,116,109,101,92,87,86,87,90,93,96,103,111,113,106,97,94,95,98,105,118,132,139,142,151,161,170,176,172,157,141,114,90,68,53,41,29,20,15,11,10,8,8,8,10,13,18,27,38,48,57,69,94,133,169,192,200,196,185,169,151,137,130,128,128,128,127,124,121,121,122,127,134,144,147,144,144,144,144,144,143,139,143,144,144,144,149,153,149,144,144,144,147,150,148,143,139,141,143,143,145,146,146,144,144,145,143,140,132,124,119,118,118,118,118,117,118,122,129,137,143,146,148,151,152,150,145,141,139,140,142,143,143,142,141,139,137,133,131,132,131,131,130,130,129,131,135,138,142,143,144,144,144,144,144,144,144,143,142,143,144,144,144,144,144,144,140,140,143,137,134,130,129,125,122,115,108,102,101,107,114,120,124,123,127,133,142,160,162,130,98,92,110,135,139,131,128,126,123,120,120,124,128,133,135,130,131,134,134,131,127,124,123,125,128,131,127,112,96,82,72,72,87,112,126,128,125,118,114,116,123,130,136,138,139,140
143,144,140,127,111,100,102,114,127,133,134,134,129,125,122,121,123,125,125,122,115,108,103,98,93,90,92,97,104,110,117,124,128,121,102,87,84,90,98,107,119,130,138,142,148,156,164,169,169,162,148,125,99,77,59,46,36,27,21,17,13,13,11,13,15,18,24,33,42,51,61,81,116,157,188,202,203,192,175,155,138,128,125,123,125,128,127,128,125,122,122,126,131,141,147,146,144,144,144,144,144,143,142,144,142,143,146,151,149,144,144,143,139,121,126,137,141,143,144,142,144,144,144,144,144,144,144,143,140,136,133,133,135,136,136,136,137,140,144,148,151,152,150,147,145,143,142,139,139,140,141,139,132,126,123,126,130,134,137,136,135,133,132,130,129,128,130,135,140,143,144,144,144,144,144,144,144,143,141,143,143,144,144,144,144,144,143,139,139,136,132,132,130,124,116,108,101,99,104,112,118,124,126,124,131,138,146,164,155,101,59,52,75,116,138,135,130,129,126,126,128,131,136,136,132,130,126,125,124,123,124,123,122,120,121,125,128,130,124,111,94,89,98,117,127,124,115,105,99,100,107,117,129,138,141,142
143,143,144,142,136,132,131,131,131,130,130,130,128,125,122,121,121,122,123,119,113,107,102,98,95,94,98,107,116,124,128,130,131,123,106,93,91,97,104,113,122,129,133,140,146,155,162,166,167,166,158,140,118,97,78,64,52,42,34,29,24,21,21,23,26,29,34,41,50,61,80,109,145,178,199,204,195,179,159,140,128,124,123,123,125,128,133,137,133,127,124,126,132,135,135,144,144,143,143,143,144,144,144,144,144,144,144,146,146,144,144,144,134,103,118,143,144,144,144,144,144,144,144,144,144,144,144,144,143,142,141,143,146,146,146,145,145,146,147,147,148,146,143,142,141,141,141,141,141,140,135,120,100,84,77,84,101,122,136,140,139,138,136,134,129,127,127,131,138,143,144,144,144,144,144,145,144,144,143,140,142,144,144,144,144,144,144,139,137,131,131,134,128,123,114,104,99,103,109,118,123,128,127,128,136,141,145,158,155,115,77,68,89,123,139,136,134,134,133,132,135,138,135,135,135,126,111,100,94,101,117,122,120,117,117,121,126,132,135,132,124,118,121,128,128,121,109,97,88,86,90,100,119,136,142,143
141,141,142,142,142,142,138,134,128,125,124,125,125,122,121,121,121,121,121,118,114,108,104,100,96,95,103,113,121,128,131,129,125,122,115,107,104,107,114,121,127,130,134,138,144,151,158,162,166,163,165,156,142,124,109,94,81,70,61,53,47,42,41,42,43,47,51,57,66,85,113,145,173,191,198,190,171,153,135,125,121,123,123,121,124,128,135,142,142,136,130,129,133,136,131,137,139,138,138,140,141,143,144,144,144,144,144,144,144,144,144,144,143,139,143,144,144,144,143,139,143,143,143,143,143,143,143,143,143,143,143,144,145,145,145,144,144,143,143,143,144,143,142,141,141,141,141,142,142,137,114,85,61,47,41,45,64,97,128,142,143,142,141,137,132,128,127,131,138,143,144,144,144,144,146,147,145,144,143,142,142,143,144,144,144,144,144,139,136,128,132,132,128,123,114,105,106,109,114,122,126,128,128,131,139,142,143,146,150,139,121,115,125,137,138,135,133,135,137,137,135,135,137,139,139,127,107,82,69,86,114,125,122,120,119,122,128,130,131,132,133,134,134,134,132,125,112,96,81,74,75,87,110,131,139,140
134,134,134,133,133,133,131,128,123,118,116,114,115,113,115,116,117,116,116,116,115,113,108,102,99,101,112,121,124,127,128,128,124,122,118,114,112,116,123,128,130,131,135,140,143,151,155,159,162,163,166,163,157,146,138,128,117,109,101,91,80,75,73,73,74,75,78,86,100,123,152,175,189,192,184,169,147,128,118,112,111,115,118,117,122,129,134,141,141,139,137,137,136,137,135,131,128,125,126,128,132,136,139,143,144,143,143,144,144,144,144,144,144,143,142,143,143,144,144,143,143,142,141,141,140,139,139,139,140,140,141,142,141,142,143,143,143,143,143,143,143,143,143,141,141,141,140,141,143,127,94,63,42,30,30,34,48,84,122,141,143,143,143,141,136,131,130,134,140,143,144,143,143,143,145,146,144,144,144,143,142,143,144,144,144,144,143,140,130,129,132,131,129,126,116,115,114,115,120,126,128,130,128,134,139,142,143,143,143,142,140,140,138,137,134,132,133,137,136,134,134,138,139,141,142,138,126,101,86,102,128,133,129,127,126,128,132,133,130,128,127,129,133,135,137,134,123,104,86,75,76,89,110,128,133,134
128,128,126,125,125,126,127,125,121,117,112,107,106,108,109,109,110,109,109,112,115,115,111,107,107,112,123,129,129,129,131,131,126,122,117,114,113,117,124,129,131,133,136,140,144,148,152,153,152,154,158,159,156,153,150,148,143,137,129,123,117,110,108,108,109,110,114,123,138,157,175,186,189,182,167,148,132,124,120,118,116,113,115,119,122,128,137,143,141,135,136,139,140,134,127,118,110,107,106,110,116,125,132,138,141,143,144,144,144,144,144,144,144,136,110,114,126,137,143,143,143,138,135,137,136,136,135,135,136,136,137,138,138,138,139,139,140,140,140,140,140,141,139,138,138,133,132,141,142,124,87,54,39,30,31,38,54,87,124,140,143,143,144,143,140,137,137,139,142,143,143,140,137,143,143,144,144,143,144,143,138,137,142,142,143,144,143,139,126,129,130,132,132,128,125,124,122,123,127,128,132,131,128,137,140,142,144,141,135,133,137,140,137,134,133,136,137,138,138,137,139,139,140,143,144,145,144,137,131,137,143,140,136,135,134,135,138,137,131,126,122,123,128,131,133,137,134,122,107,98,99,108,120,128,129,128
129,128,126,126,127,127,127,126,123,121,115,108,105,107,110,110,109,107,108,110,114,117,116,115,116,123,130,136,135,130,127,126,124,121,113,108,107,110,118,125,128,129,131,136,140,141,145,144,143,143,149,152,152,152,151,153,156,158,154,144,140,134,133,132,133,133,138,145,156,167,176,180,177,166,150,136,126,122,120,119,119,119,119,119,122,128,136,142,140,135,134,136,138,128,113,101,92,86,85,89,96,104,117,128,134,141,143,144,144,144,144,143,144,137,106,104,120,137,143,143,142,138,135,135,134,134,134,134,133,133,133,133,132,134,135,135,135,135,135,135,135,134,133,132,133,131,132,138,138,134,116,86,66,57,56,63,80,107,132,141,142,143,144,143,143,141,142,139,137,126,130,138,148,149,145,144,144,144,144,143,140,131,139,140,142,143,143,138,122,129,129,131,132,130,135,132,130,131,135,134,135,129,129,136,140,143,143,138,129,126,132,136,134,132,135,138,142,142,140,141,141,142,144,144,144,144,144,146,146,145,143,141,140,141,141,142,143,141,135,128,123,121,122,126,126,128,136,135,130,127,126,128,130,130,130,130
135,136,134,134,134,131,126,116,110,114,117,111,107,110,116,117,114,111,111,114,118,122,124,124,126,129,133,133,128,117,109,106,111,114,109,101,97,99,105,111,115,117,122,127,132,137,140,138,137,141,146,148,149,149,149,152,154,154,153,151,144,138,133,130,128,128,133,140,150,159,164,164,159,150,141,132,127,123,121,120,120,120,119,107,113,128,134,139,137,134,132,131,131,119,99,85,74,67,65,68,75,81,96,111,124,134,141,143,144,144,143,144,144,143,143,142,142,143,143,141,139,136,136,133,128,127,127,126,125,121,120,116,120,121,121,121,122,123,124,125,124,124,125,124,125,127,128,130,131,131,132,128,119,109,104,107,118,130,139,141,143,143,144,144,144,143,129,121,125,131,146,159,161,154,146,144,144,143,142,140,138,131,135,139,141,143,142,137,120,130,128,116,106,121,141,140,138,140,141,137,134,126,126,134,141,144,144,141,131,128,132,133,132,133,137,140,144,143,143,142,143,144,144,144,144,144,143,142,143,143,133,130,141,143,144,144,143,143,139,134,128,124,122,123,124,122,128,132,135,139,139,139,138,138,138,136
138,141,142,140,139,132,120,102,94,100,112,111,110,116,122,124,119,117,117,121,126,128,129,129,129,130,131,125,111,94,82,84,95,106,107,99,93,92,94,97,99,102,108,116,124,130,132,131,134,141,144,145,144,145,146,147,149,150,145,137,125,112,103,97,94,94,99,109,121,133,142,146,144,142,139,134,131,127,124,122,121,122,116,75,92,125,130,135,133,134,132,130,127,110,88,72,60,53,51,52,58,66,76,93,108,123,135,142,143,143,142,143,142,141,140,139,138,135,136,135,134,133,134,135,135,133,131,130,130,128,128,127,125,126,127,127,126,125,124,124,121,121,121,119,118,119,119,116,116,118,122,127,128,129,129,132,137,141,142,143,143,143,144,143,144,143,128,123,137,150,160,162,157,150,143,140,142,142,138,136,134,131,134,139,142,143,142,138,121,130,128,116,104,122,143,143,142,143,143,138,132,123,126,134,142,144,144,143,138,136,135,133,133,135,139,143,143,143,143,142,144,144,144,144,144,144,143,128,129,140,126,127,140,143,143,143,143,141,139,136,133,129,126,125,126,125,120,116,123,137,142,143,143,143,140,137
133,140,143,143,142,135,123,107,99,105,118,120,121,123,125,125,123,122,125,129,131,130,128,127,127,129,128,118,98,77,67,70,87,103,110,104,98,95,94,93,92,94,99,108,117,124,126,126,132,140,144,144,143,144,144,146,145,139,123,103,87,75,68,65,64,65,68,75,85,98,112,128,136,139,140,139,136,131,126,124,125,126,125,108,113,121,126,130,132,134,134,130,122,102,80,64,52,45,41,41,45,51,60,76,93,112,128,138,143,143,140,136,139,138,137,137,138,138,139,140,141,142,142,142,141,140,141,142,142,142,143,143,143,142,141,141,141,141,140,140,140,137,134,131,129,128,127,124,118,114,112,116,122,128,131,133,134,137,142,143,144,144,144,144,144,144,132,125,145,159,158,152,144,139,136,136,138,137,134,131,130,131,132,141,143,144,143,138,124,132,131,132,133,141,144,143,143,144,142,137,133,126,131,138,143,144,144,143,141,138,135,134,136,139,142,143,143,144,143,143,144,144,144,144,144,144,143,136,132,140,124,121,136,143,142,141,137,136,132,129,134,134,132,130,128,127,119,113,112,126,138,144,144,143,137,132
132,139,143,144,143,140,134,128,124,128,133,133,131,128,124,121,122,124,128,132,132,128,123,122,123,125,125,116,95,75,67,73,89,108,117,115,112,109,105,100,96,94,97,103,112,118,119,120,128,139,143,144,143,146,148,150,140,119,91,69,57,51,48,50,52,53,54,57,63,72,85,106,127,141,141,141,140,136,128,126,129,132,132,127,119,117,120,126,130,133,134,129,119,100,80,63,50,41,37,36,37,41,48,63,79,100,120,134,142,143,143,143,143,142,142,142,143,143,144,144,144,144,143,140,143,143,143,138,141,141,141,140,139,141,140,140,138,139,140,140,141,141,141,142,142,141,140,135,130,124,119,116,113,114,121,128,132,133,136,139,142,143,143,143,143,141,129,128,154,161,151,141,135,133,133,135,133,132,129,127,127,129,132,142,144,144,143,140,129,134,133,133,139,143,143,139,142,143,139,137,134,130,137,142,144,144,144,143,141,137,135,136,139,142,143,143,143,143,142,143,144,144,144,144,144,144,144,144,143,143,131,125,139,143,142,140,128,128,122,110,129,137,138,136,134,131,125,117,111,119,133,143,144,143,138,132
137,140,143,144,144,143,143,142,142,143,143,142,136,128,123,119,118,121,123,127,127,123,118,117,120,124,125,118,102,87,80,87,102,118,124,125,126,124,120,114,106,101,100,102,110,114,113,115,123,136,143,146,145,147,152,152,129,94,65,48,43,43,46,50,54,58,59,58,57,59,68,82,106,129,140,139,141,138,133,129,133,137,136,127,114,108,113,120,124,129,131,130,121,104,85,66,51,41,36,33,33,36,39,53,69,92,114,131,141,143,144,144,144,144,143,137,131,143,144,144,144,144,143,143,141,141,141,142,143,143,143,144,144,144,144,143,142,138,139,143,144,143,143,143,143,142,141,140,138,133,129,128,125,122,116,114,119,125,128,130,136,137,137,137,131,133,133,140,156,155,143,136,135,133,134,135,133,131,128,125,115,107,128,141,144,144,144,142,133,135,135,133,138,143,144,143,143,143,137,136,134,134,141,143,144,144,144,143,142,138,136,138,141,143,143,143,143,142,143,144,144,144,144,144,144,144,144,144,144,143,135,135,143,143,142,140,130,129,126,112,130,139,141,141,140,137,133,130,129,132,140,143,144,143,141,138
142,143,143,144,144,144,144,144,144,144,144,142,136,129,124,120,116,114,115,118,120,118,117,119,124,128,128,123,114,104,102,107,117,124,126,130,134,134,130,125,118,108,100,104,111,110,107,108,117,130,142,144,145,149,152,149,114,75,51,42,42,46,50,56,63,69,70,67,60,58,61,72,89,115,135,139,141,140,136,135,137,138,132,120,107,103,108,114,119,123,127,129,125,111,93,74,57,43,37,33,30,33,37,47,66,87,108,129,141,143,143,144,144,144,143,116,85,130,143,144,143,141,141,138,143,144,143,141,132,139,143,144,144,143,141,139,139,139,139,140,141,142,143,144,143,144,144,144,143,139,137,134,132,131,129,128,123,113,108,116,123,131,134,139,138,140,147,151,153,148,139,136,136,137,138,138,138,135,132,128,115,110,128,138,144,144,144,143,137,134,136,133,135,141,144,144,144,143,135,136,134,136,142,144,144,144,144,143,143,140,139,140,142,143,143,144,143,143,144,144,144,144,144,144,144,144,144,144,144,143,131,130,141,143,142,140,140,138,136,134,139,143,143,143,143,142,140,138,139,141,143,144,143,141,143,142
144,144,144,144,144,144,144,144,144,144,143,141,137,131,126,120,115,109,108,111,114,117,120,125,129,131,129,128,124,120,120,122,123,123,124,130,137,137,133,129,123,111,105,108,106,102,98,100,109,124,137,143,147,148,153,143,101,64,46,43,47,50,52,56,64,73,76,73,66,61,63,69,79,103,128,138,142,142,139,138,135,134,125,108,102,106,110,113,110,109,122,128,129,121,103,84,65,51,41,36,33,34,38,48,67,88,107,130,141,143,142,144,144,144,142,122,105,128,143,143,142,141,144,144,144,143,143,134,102,121,143,144,140,140,143,143,143,143,143,143,142,143,143,143,143,143,143,144,143,140,138,137,137,137,136,134,133,128,136,140,143,147,150,151,152,151,151,151,147,141,138,138,138,138,141,142,142,141,139,136,136,137,138,134,143,144,144,143,135,137,137,135,138,138,142,144,144,143,135,136,134,138,143,144,143,144,144,143,143,142,142,142,143,143,144,143,143,144,144,144,144,144,144,144,140,135,140,143,144,143,141,140,143,143,141,138,139,142,142,142,143,144,144,144,144,144,143,143,143,143,144,144,143,141,143,144
144,144,144,144,144,144,144,144,144,144,143,142,138,132,128,121,115,108,107,110,116,121,125,127,128,128,126,126,126,126,126,123,120,119,123,128,134,136,135,132,127,118,113,105,100,94,91,95,105,119,131,137,144,151,153,141,96,63,47,46,48,46,46,48,56,66,73,73,68,65,67,70,77,96,123,135,142,143,143,142,140,130,114,109,114,118,120,118,109,108,114,122,129,129,116,97,77,60,50,43,39,41,43,52,72,94,113,134,142,143,144,144,144,139,127,123,129,139,143,144,143,143,143,144,144,144,143,139,123,132,143,144,144,144,143,143,143,142,142,143,143,144,143,142,142,143,141,138,140,141,140,138,138,140,143,142,143,153,157,154,148,144,144,144,145,146,146,144,141,139,138,137,137,138,143,144,142,140,143,142,142,142,143,135,140,143,142,138,136,140,139,138,141,139,142,136,138,142,136,137,135,140,143,144,143,144,144,144,144,143,143,143,143,144,144,143,144,144,144,144,143,141,143,143,135,125,128,141,144,144,143,141,139,138,134,128,130,137,143,143,144,144,144,144,144,144,144,144,144,144,144,143,143,143,144,144
144,143,143,142,143,143,144,144,144,144,144,143,140,134,129,123,117,113,114,118,124,128,125,118,111,107,107,113,120,123,122,117,113,114,117,122,128,131,134,135,130,122,113,104,97,90,87,93,104,115,126,131,139,147,152,142,98,65,51,47,43,41,39,42,50,59,67,72,69,67,69,73,77,95,122,130,142,144,144,143,140,127,120,130,132,137,136,127,114,104,103,113,126,132,126,111,92,76,65,58,54,56,56,65,84,105,122,138,143,144,143,143,141,133,135,141,143,143,144,143,142,142,142,144,144,144,143,143,142,139,139,140,140,140,141,140,138,136,135,138,141,144,144,143,143,144,143,143,143,143,143,143,145,151,156,159,162,162,156,148,143,140,141,143,141,142,142,142,142,141,138,138,137,138,141,142,141,139,142,141,143,143,144,139,139,143,135,117,133,138,142,140,143,144,143,127,131,143,138,140,137,142,143,144,143,144,144,144,144,144,144,143,143,144,143,143,144,144,144,144,142,133,136,143,141,130,128,142,144,144,143,139,136,135,130,123,121,128,136,141,143,144,144,144,144,144,143,143,143,142,142,142,143,143,144,144
144,143,141,139,138,142,144,144,144,144,144,143,142,136,130,125,122,121,125,130,134,130,118,101,87,81,87,99,112,118,116,111,109,110,111,113,117,125,131,134,130,124,115,105,95,85,82,91,102,111,119,127,136,143,150,143,104,73,56,47,41,36,34,38,45,54,63,68,68,68,70,73,76,98,124,136,146,146,142,142,142,128,140,152,153,153,146,134,117,99,93,98,111,126,129,122,109,94,86,78,75,76,77,88,102,118,132,141,144,144,143,142,140,143,144,143,143,144,144,144,144,143,142,143,142,138,134,137,133,131,133,135,140,142,140,136,129,127,128,132,137,142,142,141,143,144,144,144,144,144,144,143,142,143,149,153,151,147,143,139,138,138,141,143,143,144,143,143,143,143,142,139,136,134,136,138,139,140,138,137,143,140,143,140,140,144,143,137,142,143,143,142,144,144,144,143,143,143,140,142,140,143,144,143,143,144,144,144,144,144,143,143,144,143,143,144,144,144,144,144,143,142,143,144,143,143,143,143,144,144,143,142,139,138,134,128,123,124,129,137,142,144,144,144,144,143,141,140,139,138,138,138,139,141,143,144
143,142,138,129,129,141,143,143,143,142,142,141,137,131,127,125,126,128,134,139,141,131,111,89,74,69,77,93,110,120,117,110,106,105,104,105,108,118,128,130,129,124,117,106,91,79,78,87,99,108,117,124,134,140,147,146,113,84,64,52,42,36,33,36,42,51,59,65,67,67,69,72,79,107,130,143,153,147,142,142,144,134,156,163,162,158,149,138,121,100,87,85,96,112,125,128,123,115,106,100,98,98,102,105,118,131,139,143,143,144,143,144,144,144,144,144,143,143,144,144,143,141,138,134,134,132,132,132,127,128,135,132,129,135,137,133,102,93,124,135,137,137,137,140,143,143,143,142,143,144,144,143,139,135,134,134,134,134,133,134,135,136,139,143,144,144,144,144,142,143,143,139,137,135,135,136,136,136,135,135,139,142,143,141,138,143,143,143,143,143,143,141,144,144,144,144,144,143,142,143,143,144,143,143,144,144,144,144,144,144,143,144,144,143,144,144,144,144,144,144,144,144,144,144,143,142,143,144,144,144,144,144,143,143,142,138,131,128,129,136,142,144,144,144,143,141,137,136,135,135,134,135,136,138,140,143
142,142,134,119,129,141,143,141,139,136,134,131,127,123,120,121,126,132,138,142,142,132,113,92,77,74,82,100,119,124,117,110,106,102,100,100,106,116,126,129,127,123,116,104,87,75,77,87,100,112,120,127,135,137,144,147,123,94,75,60,48,39,36,37,42,50,57,61,64,66,69,74,89,120,140,149,153,144,143,143,143,139,165,162,158,156,147,139,126,106,89,82,92,100,116,126,128,126,120,116,114,117,121,126,130,138,142,143,144,143,143,144,144,143,142,144,144,143,140,136,133,132,132,133,133,133,137,138,137,140,140,139,138,138,141,135,100,93,128,133,133,138,141,141,142,143,142,141,141,143,144,143,140,135,133,133,132,133,133,134,134,135,139,142,144,143,143,143,142,143,141,141,142,141,137,136,137,134,130,128,134,142,141,140,140,143,139,137,137,138,138,139,143,143,143,143,144,144,143,143,143,143,142,144,144,144,144,144,144,143,143,144,144,144,144,144,143,143,144,144,144,144,144,144,143,139,141,144,144,143,144,144,144,144,144,141,136,132,133,139,143,144,144,143,142,137,133,131,132,131,130,130,131,135,137,140
139,141,137,130,139,143,142,138,133,128,125,122,118,115,116,121,128,134,139,142,143,137,124,107,95,93,101,116,128,127,120,113,107,102,99,101,109,121,128,129,127,122,116,101,84,76,81,91,104,116,124,128,128,128,143,146,132,105,87,72,60,51,46,45,47,53,58,61,64,67,73,82,105,135,150,153,152,143,143,143,142,143,166,158,154,151,143,135,128,116,102,91,100,102,113,122,127,127,125,123,124,127,131,136,137,140,140,141,144,144,142,143,144,143,143,141,137,127,122,125,128,128,129,129,129,130,133,137,135,137,136,136,137,137,136,134,128,128,132,135,138,142,143,141,139,141,135,120,131,143,144,143,143,140,139,138,134,131,136,135,133,134,138,142,143,141,139,137,137,136,135,139,143,144,143,138,124,128,130,128,134,140,139,140,136,141,138,134,134,132,134,135,138,140,138,138,141,143,143,143,143,141,144,144,144,144,144,144,144,144,144,144,144,144,144,143,141,143,144,144,144,144,144,144,144,143,143,144,143,138,142,144,144,144,143,139,135,135,139,143,144,144,144,143,139,133,128,127,126,124,125,126,129,133,135,137
136,140,142,143,143,143,141,135,128,123,119,117,114,114,117,124,130,137,142,143,143,140,135,128,120,119,126,132,133,129,122,116,110,104,101,105,116,128,132,132,128,125,117,100,84,78,81,92,105,113,118,125,130,136,143,148,142,116,99,85,75,66,59,57,57,59,64,66,68,74,82,98,123,148,157,151,144,137,138,139,137,143,161,149,147,143,139,134,128,123,122,108,115,119,120,124,126,126,125,126,128,130,134,138,138,135,137,143,143,142,139,138,137,134,130,126,128,135,141,143,143,143,143,143,143,144,143,143,143,143,143,142,143,143,143,143,142,140,138,136,137,138,141,142,141,141,131,105,121,142,144,143,144,142,141,140,128,116,134,133,132,133,137,141,141,138,133,129,128,127,128,133,140,143,143,130,97,117,131,130,135,138,143,143,138,138,133,128,126,126,128,128,128,129,128,128,133,138,141,142,142,143,143,144,144,144,144,144,144,144,144,144,144,144,144,144,142,137,143,144,144,144,141,137,143,144,144,144,143,134,138,143,141,140,139,135,134,138,143,144,144,144,144,141,136,128,124,117,101,94,106,121,128,132,135,135
135,138,141,143,144,143,141,135,128,124,121,119,116,116,120,128,134,140,143,143,140,138,137,135,133,132,133,134,133,129,124,118,112,106,106,112,124,135,138,136,132,128,117,100,85,78,79,85,91,97,103,114,126,138,143,145,148,130,111,98,87,78,72,68,67,68,70,73,77,85,96,117,139,155,154,142,135,124,113,126,131,140,156,136,135,131,128,127,133,129,136,128,123,133,135,133,133,133,139,140,141,143,144,146,144,144,144,147,142,128,121,125,128,131,135,140,143,143,144,143,143,143,143,143,143,143,144,143,143,143,143,143,128,140,144,144,142,140,141,141,140,138,136,135,135,140,140,135,139,143,144,143,143,141,137,135,134,132,135,134,133,133,136,138,135,134,130,126,123,122,123,128,131,133,136,131,113,122,128,129,135,138,143,144,137,136,128,119,115,116,117,119,119,119,117,118,124,131,134,136,138,139,141,143,144,144,144,144,144,144,144,144,144,144,144,144,143,137,142,144,144,144,141,132,141,144,144,141,143,143,140,136,133,130,128,127,131,139,143,143,140,143,143,140,134,127,122,109,87,79,92,117,128,134,136,135
135,136,139,143,144,143,142,138,132,129,128,125,122,120,124,130,137,141,142,140,135,134,134,133,132,133,134,135,131,128,122,118,113,109,109,117,129,139,141,138,134,128,115,99,86,78,76,76,78,79,85,99,120,137,143,143,146,143,124,111,100,91,84,79,78,78,80,85,91,100,116,134,149,159,151,138,129,109,85,113,128,135,149,128,124,120,123,120,129,136,141,143,135,134,143,151,148,146,147,138,139,142,145,143,143,144,143,142,142,129,138,142,143,143,144,144,143,143,138,137,142,143,135,134,135,138,143,144,143,142,141,143,146,148,149,151,145,139,135,131,131,134,138,139,138,139,141,141,143,143,144,144,143,141,135,129,128,131,133,134,135,135,136,136,135,132,131,128,127,123,124,124,123,121,122,126,127,128,128,129,136,141,143,143,134,123,123,115,108,106,106,107,109,110,110,112,116,122,125,128,132,135,139,142,143,144,144,144,144,144,144,144,144,144,144,144,144,143,143,144,144,144,144,142,140,143,144,143,143,143,138,131,128,125,119,120,129,140,143,143,142,143,142,138,133,128,124,117,99,92,104,121,130,139,139,136
136,136,138,138,140,144,143,141,137,136,135,132,128,127,128,133,139,141,140,137,134,134,135,136,136,135,137,136,131,127,122,119,112,113,114,123,133,139,138,134,133,128,115,101,89,80,77,76,76,76,79,91,111,129,139,138,140,147,142,126,115,106,99,95,93,93,96,101,108,120,134,143,148,154,143,129,127,123,115,121,120,134,139,118,115,110,114,123,129,133,141,147,152,150,153,153,167,163,160,156,152,150,147,145,143,143,143,143,148,138,143,144,144,143,142,143,146,142,136,137,142,145,143,142,140,136,133,134,138,142,147,148,147,146,143,145,147,143,137,130,123,118,126,132,136,137,138,141,142,137,135,138,141,141,135,128,122,123,128,133,135,136,137,134,132,132,136,136,134,130,128,125,120,114,113,120,127,130,131,133,134,139,139,140,113,102,124,118,107,99,96,98,101,104,106,110,114,119,121,124,128,131,136,139,141,144,144,143,144,144,144,144,144,144,144,144,144,144,143,143,144,144,144,136,123,136,144,144,144,143,139,135,131,127,119,121,132,142,144,144,144,142,138,135,133,130,128,126,120,117,121,128,136,141,142,139
138,135,131,132,136,144,143,143,141,141,140,139,135,133,134,138,142,142,138,135,134,135,138,140,140,140,140,137,133,128,125,124,121,121,122,128,136,135,129,127,129,128,118,106,96,89,86,81,79,79,82,93,108,125,130,128,128,143,151,146,131,124,117,113,111,112,115,121,130,142,144,141,146,147,137,127,125,124,120,111,123,135,130,119,112,110,115,129,137,134,137,151,158,162,163,163,177,171,170,169,162,158,153,150,143,139,136,145,145,143,143,142,142,138,139,139,135,138,128,129,137,136,133,135,137,136,133,130,130,132,139,140,142,144,142,143,143,139,135,133,131,119,111,111,120,125,129,134,137,131,126,129,134,137,134,124,121,122,127,131,133,135,135,128,128,132,138,141,140,135,131,128,124,119,119,125,133,136,138,137,136,137,137,138,127,124,129,122,108,98,96,99,105,109,112,113,116,121,125,125,125,125,128,134,140,143,144,144,144,144,144,144,144,144,144,144,144,141,139,140,143,143,143,138,127,137,144,144,143,143,142,140,136,128,119,120,130,139,142,143,143,140,135,133,133,132,131,129,128,126,128,134,139,143,143,141
141,132,124,138,143,144,144,143,143,143,143,143,142,140,141,143,143,141,137,134,135,138,142,143,141,138,134,130,129,128,129,129,129,128,129,132,133,124,104,109,125,128,122,111,102,98,94,89,85,85,89,97,108,125,127,121,122,144,151,160,155,147,142,139,138,137,142,151,154,150,140,134,135,137,135,127,122,119,111,115,129,129,124,117,113,114,116,118,142,145,139,146,160,165,167,155,175,175,172,176,172,167,162,155,144,136,134,135,128,137,143,148,150,139,135,130,130,133,91,112,134,132,130,128,131,128,122,122,120,117,125,129,131,137,135,137,135,135,135,138,140,138,130,122,114,110,116,121,125,128,129,128,126,127,127,122,122,124,127,128,129,131,129,125,126,132,136,134,139,137,130,128,126,126,129,135,133,123,141,141,139,137,134,134,132,132,129,120,108,101,104,113,121,125,124,121,119,123,126,123,118,115,119,128,137,143,144,144,144,144,144,144,144,144,144,144,142,136,133,135,139,140,138,138,139,143,144,143,142,140,141,142,136,126,116,114,119,127,133,137,141,139,133,131,131,131,131,129,128,128,132,137,140,142,143,143
143,140,138,143,144,144,144,144,144,144,144,144,144,143,143,142,141,140,138,136,137,140,143,143,137,129,123,119,121,125,132,137,137,134,132,132,132,123,82,93,127,132,127,113,104,96,90,81,75,74,81,93,107,122,130,136,142,147,149,149,154,159,155,156,157,158,159,162,153,128,129,133,129,131,129,126,122,115,112,122,125,122,120,117,118,121,128,128,125,144,141,139,157,162,163,151,172,177,175,174,178,178,166,149,130,121,123,128,136,147,148,148,140,127,128,129,129,135,134,140,143,143,143,142,142,139,135,130,125,121,125,128,130,135,135,118,85,111,127,133,138,138,127,124,120,110,106,106,103,101,110,111,109,114,117,119,122,125,126,125,125,126,127,127,127,131,129,113,130,135,129,126,122,128,133,138,137,135,143,141,137,134,131,130,128,128,125,117,108,108,117,128,134,134,130,125,121,121,122,118,113,111,115,125,135,143,144,144,144,144,144,143,143,143,144,143,138,132,128,130,134,135,135,136,139,142,144,143,140,138,139,141,137,128,119,114,113,115,119,129,137,140,137,132,130,130,130,130,129,130,135,139,141,142,143,144
144,143,143,144,144,144,144,144,144,144,144,144,144,143,141,137,135,135,137,137,139,140,141,138,131,120,108,103,106,117,129,140,140,135,131,131,131,130,121,122,130,133,127,113,100,88,75,63,54,52,60,79,97,118,134,143,145,143,137,135,139,153,161,158,153,147,143,142,138,137,138,132,127,122,115,115,123,116,115,118,117,116,115,118,122,127,132,135,117,119,133,130,149,153,151,146,162,170,172,175,177,171,161,153,154,156,150,143,144,138,140,144,143,138,139,138,138,143,143,144,143,144,144,144,143,140,136,131,129,128,130,131,132,136,139,126,103,120,126,125,128,125,101,102,109,108,111,113,106,92,93,92,90,96,103,108,113,118,121,121,121,125,128,131,133,135,135,128,135,133,129,127,123,125,128,132,133,136,140,141,136,132,128,128,130,129,127,119,112,116,128,137,132,128,129,127,124,123,122,121,119,119,123,129,138,143,143,143,143,143,143,143,143,142,140,138,133,129,128,128,132,136,138,139,140,142,143,141,139,139,140,143,140,136,129,125,120,117,120,129,137,141,141,138,135,133,134,135,136,137,141,143,142,143,144,144
144,144,144,144,143,144,144,144,144,144,144,144,144,142,137,131,129,130,135,138,138,138,137,131,123,111,100,93,92,99,115,131,139,136,131,128,130,130,128,125,125,127,121,111,96,79,63,50,42,39,47,63,87,111,134,141,136,120,109,111,121,134,151,150,137,124,126,130,130,138,135,127,119,112,112,117,121,113,110,109,110,112,115,118,122,124,127,127,110,100,121,119,132,132,115,124,143,153,160,165,161,148,167,177,174,162,152,145,147,143,143,144,144,145,143,143,143,143,144,143,143,143,143,143,141,137,133,130,130,128,127,123,120,122,126,125,120,114,108,107,110,110,101,95,93,101,113,116,111,102,92,79,73,80,88,94,100,107,114,118,122,128,134,138,138,134,132,134,133,131,131,127,120,120,122,127,129,132,137,140,138,132,128,131,129,127,131,122,116,122,133,141,132,128,132,130,130,128,128,129,130,131,134,138,142,143,140,140,142,143,143,143,140,137,135,131,128,126,128,130,134,140,143,143,140,135,128,123,124,135,143,143,142,140,138,139,133,128,125,127,132,142,143,143,141,140,141,139,135,134,142,143,143,144,143,144
144,144,144,144,144,144,144,144,144,144,144,144,143,140,134,128,125,128,134,138,137,135,131,126,119,111,101,88,77,79,95,120,134,136,132,128,128,128,125,120,119,121,118,108,93,75,58,46,38,37,43,58,84,111,128,128,114,95,91,102,115,122,135,135,125,117,119,121,124,128,128,124,116,108,106,107,107,103,102,105,108,111,114,116,111,103,99,101,89,78,87,91,98,86,73,80,93,111,129,140,141,155,173,180,178,172,168,162,153,146,145,147,150,149,147,141,139,135,133,134,134,134,134,134,133,130,128,128,128,127,121,113,105,104,104,99,93,87,84,86,93,97,92,87,86,95,108,112,107,100,93,84,80,82,87,90,94,102,112,119,124,128,135,138,135,129,128,131,128,123,128,124,116,116,122,128,135,141,143,143,143,139,134,132,129,128,128,120,117,124,135,142,143,140,137,135,134,134,135,138,140,140,140,142,143,142,138,136,140,141,138,136,135,134,134,132,128,127,128,130,133,137,141,140,132,120,107,97,101,124,139,142,139,138,141,143,142,137,133,134,136,139,143,142,141,142,138,122,103,102,126,143,144,144,144,144
144,144,144,144,144,144,144,144,144,144,143,142,138,132,127,123,123,128,134,138,136,132,128,124,119,114,105,87,72,70,86,112,132,137,133,131,128,125,120,116,116,120,114,104,92,76,61,50,42,42,47,63,86,107,117,111,96,84,91,105,115,117,127,125,115,109,111,113,115,121,124,124,118,108,100,94,90,92,99,108,110,113,113,105,89,81,79,84,85,87,84,85,79,67,61,61,59,56,72,94,125,153,166,177,182,182,177,170,160,151,145,141,138,137,138,136,137,135,133,133,134,133,134,135,135,133,129,130,131,131,128,122,114,106,99,92,86,81,80,86,94,99,97,95,98,99,109,112,106,103,100,96,94,93,98,98,100,103,111,119,122,124,128,128,123,116,115,119,126,126,125,119,115,119,128,137,142,144,144,143,143,141,137,132,132,129,125,119,120,128,137,142,144,143,141,138,135,136,137,140,143,143,142,143,143,141,137,135,136,132,120,123,129,133,137,138,134,130,130,129,128,129,133,130,117,102,92,89,90,105,128,139,139,138,139,143,143,141,139,136,137,139,140,140,138,139,126,92,80,85,108,136,142,139,142,143
143,144,144,143,143,144,144,144,144,144,143,137,128,119,115,116,122,128,136,138,136,132,128,124,121,118,111,94,78,76,91,116,135,137,137,133,128,122,117,116,120,120,111,105,100,90,75,61,57,54,59,69,85,98,102,96,85,81,94,107,111,115,125,125,117,110,111,112,113,117,123,123,115,113,102,90,86,91,103,116,120,119,105,84,67,72,75,79,88,93,95,89,87,84,73,63,54,48,56,64,86,123,152,170,178,174,174,171,160,147,143,142,142,142,142,143,143,143,143,143,143,143,143,143,143,143,142,141,142,141,137,132,128,121,115,110,105,102,104,108,113,115,113,113,117,121,123,124,121,115,112,110,109,108,112,110,107,107,113,117,119,121,123,119,112,103,98,100,105,111,116,118,121,128,136,143,143,144,143,143,143,143,131,116,131,130,125,123,127,135,141,143,140,142,143,140,134,136,137,139,143,143,143,140,137,135,132,131,130,126,113,116,124,134,141,142,139,135,134,130,126,125,126,119,102,84,80,87,92,101,119,133,136,136,138,140,138,139,141,139,137,138,140,140,139,138,117,80,73,75,96,128,137,131,138,143
143,143,143,138,139,144,143,144,144,144,142,132,120,110,108,112,121,130,135,137,135,134,130,128,126,124,120,110,98,96,109,128,141,142,140,134,127,120,117,120,126,127,117,113,112,107,97,86,78,74,75,78,81,86,86,82,78,82,94,103,109,116,123,125,122,117,116,112,112,119,124,106,90,116,106,94,93,101,115,128,132,119,85,68,67,74,73,77,87,95,104,95,92,94,90,78,68,59,56,46,51,87,128,155,160,161,173,173,165,154,146,137,132,130,130,132,132,131,130,133,137,141,143,144,144,144,143,144,143,143,132,128,137,137,136,131,129,129,131,123,121,128,125,126,132,136,133,132,130,128,125,121,120,117,119,117,113,111,113,114,115,118,120,118,109,99,93,91,93,101,113,125,132,138,142,142,141,138,138,136,136,141,138,126,140,131,127,128,133,139,143,143,137,140,144,143,140,136,135,138,141,142,139,132,125,120,119,120,122,120,117,119,128,137,142,141,138,136,136,133,130,128,125,117,96,73,72,87,102,110,121,129,131,133,135,135,132,135,140,142,140,140,143,141,136,139,122,86,70,73,96,127,136,135,138,142
142,140,144,139,139,143,142,143,144,144,142,133,121,112,110,115,124,129,131,132,134,135,135,134,131,130,130,127,121,122,129,139,143,143,139,133,125,118,117,126,134,136,130,125,120,117,114,108,101,96,91,86,80,78,77,75,75,85,96,107,114,115,119,120,119,118,118,115,114,119,123,119,112,115,104,96,102,112,127,140,143,112,78,74,75,72,73,80,86,100,109,102,101,107,102,89,80,73,58,42,41,59,97,128,148,170,175,172,164,156,147,139,136,137,138,136,135,136,135,137,140,142,143,143,143,143,141,142,141,143,143,143,143,142,143,139,137,136,139,124,122,129,128,130,128,134,134,133,132,130,128,128,127,124,122,121,115,110,111,109,111,113,113,112,107,101,98,95,96,104,118,130,138,141,139,135,134,133,127,120,110,128,144,146,139,130,129,131,125,124,140,144,143,144,143,142,139,136,135,137,139,138,134,128,121,114,111,108,109,115,122,128,133,139,142,141,137,135,133,129,130,131,130,124,105,81,74,87,103,115,122,126,126,125,127,128,128,132,141,143,143,143,143,131,116,130,133,113,94,95,113,129,134,135,140,142
141,142,143,144,144,144,143,144,144,144,143,138,129,123,122,126,128,127,125,126,131,136,139,138,135,133,132,133,133,134,136,140,143,140,137,133,122,116,117,126,136,141,141,136,128,125,123,121,117,110,103,95,86,80,78,78,85,96,107,112,116,116,114,104,85,85,106,114,115,114,116,118,110,102,100,100,108,122,137,149,147,107,89,86,78,75,78,85,87,107,108,106,109,114,110,102,95,84,56,42,39,48,74,111,148,165,166,163,161,156,143,135,134,134,134,133,131,128,127,126,126,128,128,130,137,133,132,134,138,143,144,144,144,143,141,140,137,137,139,137,137,135,128,126,112,121,128,131,130,108,113,130,123,111,111,118,114,109,108,107,105,102,101,102,101,100,99,98,102,109,119,127,133,132,122,114,120,128,123,115,105,122,137,131,129,127,128,133,116,112,141,144,143,143,140,136,134,135,137,139,138,134,132,124,109,106,113,111,105,108,122,130,133,136,139,137,133,130,129,127,126,128,133,131,121,105,93,93,101,112,120,123,121,117,118,119,124,132,141,143,142,143,143,129,115,129,142,135,128,126,131,133,136,139,141,141
139,139,142,144,144,144,141,142,144,144,144,142,139,136,136,135,130,123,118,123,131,139,142,139,131,127,127,129,131,128,125,129,135,136,135,131,120,114,111,115,124,133,138,136,131,128,126,125,123,118,112,106,99,93,90,91,98,107,113,114,118,116,109,91,67,67,94,111,114,111,109,102,90,96,98,103,117,131,146,154,144,99,93,89,81,81,84,92,103,108,104,106,115,115,113,109,104,89,59,51,45,47,66,105,134,153,163,165,165,156,143,141,134,124,120,126,130,128,128,126,126,124,120,125,126,130,134,137,136,133,133,134,133,136,134,132,128,129,132,132,135,131,128,114,118,123,123,122,128,118,128,124,92,72,81,100,105,103,103,102,99,97,94,92,94,96,96,98,106,111,116,119,125,121,94,77,95,122,123,114,118,126,125,118,117,119,126,136,136,138,146,141,140,136,133,130,129,132,139,141,137,133,125,91,64,65,90,117,110,103,113,125,127,129,135,135,129,128,128,123,120,123,129,133,129,124,116,110,109,115,122,125,120,116,116,120,125,131,139,142,140,141,142,139,132,137,142,140,138,137,133,120,131,140,142,142
139,139,142,143,144,143,131,136,144,143,144,144,143,143,143,139,130,123,123,128,135,141,140,134,123,117,118,124,124,117,110,111,128,131,132,131,120,110,99,99,107,121,130,128,127,126,126,126,126,123,121,118,113,108,105,104,106,109,106,107,116,115,108,95,77,80,99,112,114,112,107,99,90,87,90,99,116,133,149,153,126,84,88,84,87,90,89,103,108,110,107,107,111,110,109,107,109,101,79,68,53,51,61,95,120,140,153,156,158,154,149,145,140,138,139,142,143,143,142,142,143,143,141,140,134,133,132,133,128,121,125,128,128,126,121,121,122,121,128,132,139,138,139,136,133,126,114,114,117,128,131,92,68,72,81,93,94,95,100,104,102,101,97,93,95,102,105,110,118,120,118,120,129,122,77,60,79,114,124,115,112,112,108,105,109,116,124,132,142,145,140,137,128,112,122,126,126,130,138,141,137,133,112,59,31,34,64,110,117,102,104,116,123,125,131,133,130,128,129,125,120,123,128,131,131,131,129,126,121,125,129,129,126,123,124,128,129,131,135,137,133,133,137,134,129,130,132,131,129,131,133,131,137,142,143,142
141,142,143,144,144,143,138,142,144,144,144,144,144,143,143,137,134,132,131,135,141,141,140,131,117,112,115,121,125,111,92,86,114,123,124,126,119,108,95,93,96,108,119,119,117,120,123,125,127,127,123,122,119,116,111,109,108,105,99,102,112,115,110,102,96,101,110,113,110,104,94,87,78,72,69,76,96,122,143,143,98,76,89,86,91,92,93,110,108,110,110,106,104,103,106,107,114,117,101,82,68,58,57,79,107,124,137,145,145,143,136,137,136,138,140,137,136,140,143,141,140,142,143,143,143,143,143,143,142,138,142,143,143,142,140,141,140,140,140,137,130,128,127,136,134,129,124,119,117,119,119,92,85,95,97,96,92,97,106,110,109,108,104,102,108,116,120,125,129,129,123,121,131,136,93,76,96,122,125,119,113,107,102,101,108,117,124,129,134,135,134,133,123,113,121,123,126,131,138,141,136,132,110,54,26,29,60,111,123,104,99,110,120,122,127,131,132,131,131,129,128,128,130,131,132,133,132,130,128,129,132,131,128,127,130,135,134,135,136,134,129,126,127,121,116,116,120,121,125,128,132,136,140,141,142,142
142,143,143,143,144,144,143,144,144,144,144,144,143,141,139,141,142,140,140,142,143,141,140,128,118,116,119,123,124,113,99,97,105,94,88,98,111,108,102,98,96,108,115,112,108,113,118,119,123,124,120,115,114,111,104,104,105,101,99,103,110,111,105,101,104,113,123,122,111,105,91,81,74,67,65,74,93,111,124,125,84,73,90,96,99,91,105,108,105,107,106,103,97,99,105,111,123,126,114,99,81,64,50,56,81,104,118,124,123,128,131,130,129,133,136,137,138,136,140,138,137,136,134,139,141,136,139,143,144,144,144,144,144,140,135,132,135,134,122,115,119,132,131,133,134,131,129,128,124,118,116,114,105,102,100,99,101,109,117,118,116,113,110,108,114,121,125,127,129,126,118,112,116,128,125,117,110,100,107,122,123,114,107,106,112,121,124,128,130,130,129,128,128,124,120,123,129,136,141,140,132,130,121,82,51,53,84,123,125,108,99,104,116,120,124,129,133,133,133,134,135,136,136,136,133,130,128,129,129,131,133,133,128,128,131,131,129,135,139,136,130,127,120,111,105,105,111,121,128,131,130,129,131,136,141,142
140,140,140,141,143,144,144,144,144,143,144,144,143,140,143,144,143,143,143,144,143,141,139,126,120,123,126,128,127,123,119,113,90,58,45,56,93,114,112,111,114,121,118,106,101,107,106,90,106,116,112,107,106,104,99,98,95,93,93,95,97,97,95,92,95,106,117,117,107,99,84,68,68,69,70,82,101,117,121,112,81,77,87,97,101,95,110,107,104,104,103,98,91,97,108,118,132,132,123,108,87,63,46,41,60,92,118,130,140,150,155,153,151,146,143,143,144,143,143,143,143,142,141,143,143,143,143,144,144,144,144,144,143,136,127,126,131,126,122,130,138,143,143,143,142,140,139,139,134,128,120,112,103,102,100,101,106,115,120,121,119,117,114,109,107,109,116,122,128,128,119,108,106,108,110,105,80,58,70,108,127,120,112,110,115,123,128,130,132,128,124,122,122,120,121,127,136,141,143,136,128,124,126,119,105,105,120,127,123,113,103,104,115,123,125,127,128,131,133,136,139,139,138,135,131,128,128,129,132,134,136,135,130,128,129,125,116,132,133,125,127,126,116,106,101,105,114,127,138,138,132,125,122,128,137,140
137,135,135,139,142,144,144,144,141,132,141,144,144,143,144,143,140,142,144,144,143,141,131,115,115,128,130,133,132,128,124,115,78,41,29,37,73,117,128,128,128,127,115,103,99,104,102,87,107,114,108,103,99,97,95,91,86,80,78,79,81,84,82,81,86,95,105,102,98,96,91,80,80,81,81,88,99,112,117,113,94,101,104,101,105,102,115,109,103,101,99,92,87,95,108,120,133,134,121,102,81,60,43,34,46,80,111,130,143,154,162,162,158,151,140,140,143,144,143,139,138,137,137,137,138,140,142,143,143,143,143,143,143,142,140,141,137,129,128,132,134,135,138,136,134,135,136,139,138,137,135,129,121,114,109,106,107,112,110,111,112,112,110,103,96,97,106,118,130,132,125,118,112,105,99,88,66,48,60,101,124,119,113,111,118,128,132,132,132,125,118,117,119,121,125,132,140,143,143,136,126,119,120,125,126,125,124,119,119,118,112,111,120,128,129,127,126,127,129,132,137,139,137,133,128,128,130,133,136,137,138,138,134,131,131,130,130,134,120,96,104,108,99,93,95,103,113,127,139,142,138,128,119,122,131,137
131,128,130,137,142,144,143,142,141,137,142,144,144,144,144,140,141,143,143,143,146,141,118,98,97,117,128,134,135,132,125,117,87,45,30,37,72,113,128,132,128,122,111,102,100,105,112,119,123,115,107,103,96,91,90,88,81,80,79,80,81,87,95,102,103,107,109,104,97,106,114,109,99,90,86,88,101,113,116,114,100,112,114,108,115,108,117,110,102,96,92,86,85,92,101,110,121,129,117,99,81,61,45,33,38,72,111,134,150,163,170,170,163,151,143,143,143,140,140,139,138,139,138,136,129,133,137,136,136,136,136,137,136,136,137,140,141,139,136,134,138,140,140,137,131,129,129,131,132,135,141,142,137,128,119,113,112,112,108,101,97,98,98,94,90,93,103,115,123,118,110,113,117,116,108,97,81,69,85,113,124,119,116,116,123,129,134,134,126,120,116,118,123,127,131,137,142,144,143,138,130,123,119,118,117,115,114,113,114,117,116,119,127,133,132,128,128,128,128,128,131,135,136,133,128,125,127,133,136,138,141,141,136,133,132,135,139,137,120,97,97,94,81,76,81,90,98,109,119,128,137,134,126,123,128,133
121,123,128,137,143,143,143,138,139,143,142,143,144,143,142,140,141,143,142,138,138,135,115,91,86,103,123,134,136,131,127,119,104,70,52,58,89,111,119,122,120,113,105,103,105,108,117,128,126,121,115,113,106,100,100,99,98,99,99,98,100,105,110,110,109,104,101,102,105,121,123,111,98,92,90,99,118,124,121,119,103,118,123,118,113,103,109,106,98,88,84,80,84,89,92,96,107,119,120,98,76,58,45,34,34,60,107,135,144,159,166,162,153,149,145,142,139,142,143,143,143,144,144,135,109,123,134,129,128,127,127,128,130,132,134,137,138,136,133,132,137,138,141,142,136,128,125,127,132,137,142,143,137,131,128,125,122,116,110,103,98,93,88,88,90,97,108,113,101,76,61,64,77,97,112,116,112,110,115,123,126,124,123,121,122,124,131,133,127,119,118,122,127,131,136,137,138,142,139,134,131,128,127,124,122,121,119,117,116,117,118,123,129,132,131,130,130,131,129,127,128,131,134,134,128,124,124,129,137,141,141,130,115,113,127,134,137,137,128,118,112,102,87,77,75,76,79,81,84,91,107,124,129,127,126,124
111,117,128,138,142,143,143,139,141,140,140,140,142,138,135,136,139,140,132,118,111,118,125,109,94,101,119,131,134,129,127,124,120,108,94,98,106,108,110,110,111,108,97,102,110,114,121,129,119,124,136,129,124,121,123,122,119,113,109,108,110,112,113,112,105,99,103,111,121,126,117,102,93,94,103,120,131,131,128,124,109,121,127,125,114,94,103,105,105,96,88,82,82,84,84,86,97,109,115,101,80,59,45,37,36,57,108,141,144,146,152,152,150,146,142,140,143,143,143,144,144,144,144,143,139,139,138,131,126,124,124,124,127,128,128,128,127,126,126,128,133,138,139,140,140,136,130,128,133,140,143,142,136,131,134,133,122,105,111,111,108,101,91,87,93,106,116,112,75,41,27,29,36,54,85,115,125,125,123,122,125,128,128,120,107,105,113,127,129,126,125,126,128,131,134,135,132,138,133,124,120,123,128,128,128,129,128,128,125,124,126,128,129,128,128,128,128,131,130,129,129,131,132,134,131,127,126,130,138,142,136,110,77,77,108,131,133,135,135,131,129,122,108,94,82,75,67,60,54,52,61,87,117,127,122,115
105,116,130,138,141,142,140,141,138,132,123,128,134,126,125,131,136,135,117,93,81,90,112,127,115,106,116,127,130,129,128,129,128,125,118,114,110,107,103,105,109,111,109,112,118,120,124,131,131,138,148,143,138,136,137,136,127,115,107,105,117,130,134,128,115,115,119,120,118,112,105,103,105,116,128,134,136,135,136,133,121,119,124,123,113,97,103,111,112,103,98,92,84,78,75,79,89,104,108,97,78,58,46,39,38,59,114,148,150,142,141,139,140,141,143,143,143,144,143,143,144,144,144,144,144,143,143,136,126,125,128,128,129,129,127,122,120,120,120,124,129,131,130,129,131,133,131,132,135,143,142,142,137,137,140,136,119,100,112,117,117,111,99,93,97,108,119,108,61,26,15,17,21,31,56,94,122,127,121,117,123,132,133,118,91,86,90,102,118,120,119,119,121,124,128,131,131,139,132,120,112,111,115,119,122,127,131,131,130,128,127,128,127,127,127,127,127,129,131,132,134,134,133,133,135,132,131,135,141,143,136,110,75,75,107,132,131,131,133,133,134,133,128,115,99,82,66,50,39,34,34,51,87,118,119,109
105,119,133,139,141,138,139,137,133,127,109,121,123,113,114,125,134,130,105,77,64,69,93,126,129,110,112,124,130,131,130,130,130,126,120,116,114,109,105,108,115,119,122,123,124,123,125,131,141,147,149,145,140,134,133,137,129,117,110,117,132,141,136,129,123,117,112,107,105,103,108,117,130,140,139,140,140,142,144,140,129,118,120,116,108,99,101,97,73,63,68,84,87,77,69,72,82,102,101,91,73,57,46,41,41,66,123,154,153,143,141,139,140,141,140,138,138,138,131,132,138,140,141,143,144,144,144,138,132,133,130,134,134,135,132,128,125,122,122,125,128,127,120,116,117,123,124,113,116,136,143,143,142,142,141,136,128,121,120,123,124,118,106,98,96,105,116,107,63,26,15,17,20,26,41,75,113,126,118,116,125,136,141,127,90,80,77,84,94,101,101,101,104,110,118,130,137,141,137,127,117,111,109,109,112,118,126,127,126,126,125,123,124,126,128,128,128,130,133,136,138,139,136,135,137,137,136,138,141,142,141,128,110,109,126,132,127,124,127,129,132,136,136,130,118,100,72,45,33,26,24,31,64,105,116,106
109,124,137,141,139,128,139,140,140,128,115,119,117,108,111,130,138,125,93,68,59,61,76,113,133,112,111,125,133,135,134,132,129,123,120,119,118,115,113,116,124,129,131,128,126,122,123,128,137,144,144,142,135,121,122,133,129,120,116,119,126,126,121,116,113,110,107,106,104,111,124,134,141,142,143,142,141,143,150,146,135,121,118,117,109,101,86,58,38,38,41,56,82,80,68,67,79,97,99,88,68,54,47,45,47,80,133,158,155,144,143,143,141,137,138,131,127,117,115,123,115,127,130,140,143,142,141,138,134,134,135,132,127,126,126,122,126,123,120,123,125,120,112,106,107,116,112,89,90,125,140,143,144,143,139,133,133,129,129,130,128,121,109,102,97,101,110,111,79,38,21,20,21,26,38,69,108,124,117,121,129,137,143,142,129,109,90,82,84,86,87,94,99,103,111,124,135,141,141,136,128,121,116,112,111,114,118,122,123,122,122,123,124,127,128,130,131,133,137,139,142,142,140,139,138,136,136,137,139,141,143,141,135,132,132,128,122,117,118,127,134,139,139,134,131,118,87,50,30,21,21,29,57,99,114,107
116,129,140,142,141,138,143,144,143,135,123,121,114,107,113,133,130,106,75,58,58,60,70,106,134,113,113,129,140,140,138,134,132,128,126,125,125,125,123,125,129,136,138,132,125,119,118,123,132,139,135,133,132,124,124,132,133,127,125,124,124,120,114,112,113,115,117,120,123,129,138,143,143,144,143,140,140,143,151,151,136,127,121,114,107,97,63,36,27,27,31,39,73,85,67,64,80,91,95,81,66,54,51,51,59,100,145,161,154,145,146,143,138,129,125,114,115,106,115,124,122,133,131,129,137,131,123,129,128,132,139,141,138,133,131,132,132,130,121,117,119,118,111,106,104,107,105,97,98,124,136,140,143,144,142,141,137,135,139,139,135,127,113,104,101,101,108,117,103,66,38,29,27,30,45,74,108,122,115,122,132,134,136,142,140,133,115,96,87,79,77,85,94,99,107,115,128,139,142,140,136,131,126,120,116,115,114,119,124,123,122,122,124,126,129,132,134,136,138,140,141,142,141,139,138,136,136,136,136,137,140,141,139,133,129,128,123,116,116,125,133,139,142,136,136,133,112,73,43,30,29,39,69,104,115,112
125,135,140,141,143,143,143,144,143,134,121,117,112,105,112,131,122,92,64,53,56,60,73,110,133,114,117,134,141,140,139,137,139,137,133,131,131,134,134,132,133,137,141,136,128,120,114,118,128,129,117,115,128,136,136,138,136,129,123,120,123,124,123,123,126,128,129,130,133,137,139,143,144,143,140,136,135,138,147,152,139,130,126,116,108,92,50,27,23,23,26,36,69,87,70,68,82,90,89,79,65,57,57,60,80,122,151,152,143,136,134,126,124,127,121,119,131,113,96,78,90,128,134,124,134,132,126,123,123,128,131,136,136,132,127,131,134,126,115,113,119,123,122,115,109,105,102,102,109,121,128,134,138,142,140,143,141,141,147,151,143,133,120,110,106,105,106,113,120,103,77,58,50,51,64,90,113,117,113,124,135,122,111,133,137,136,130,108,92,82,76,78,84,90,98,113,124,136,142,142,139,133,126,124,123,120,116,121,127,125,121,121,123,126,129,134,136,137,139,140,141,141,141,139,138,137,137,137,135,133,133,136,135,132,130,132,128,121,119,121,129,135,138,140,138,140,134,112,82,63,57,67,89,107,114,117
131,139,142,143,143,143,144,144,143,131,116,115,114,106,107,124,124,100,76,65,64,66,84,124,130,113,122,137,140,137,137,141,144,147,144,142,140,140,143,137,134,137,141,141,135,125,115,115,125,121,99,97,121,140,142,141,138,132,121,114,119,129,134,136,137,135,128,115,122,132,128,136,144,143,138,132,130,133,143,151,144,137,131,123,114,95,50,30,24,24,30,39,69,85,75,76,86,91,89,78,66,63,66,77,106,138,153,152,142,140,138,135,138,141,136,136,139,118,64,50,65,123,139,127,128,133,130,120,117,124,127,130,133,136,136,136,133,121,111,114,125,133,131,125,120,113,108,107,109,111,114,125,133,143,141,143,142,143,150,162,148,138,128,124,121,118,112,109,116,124,116,101,91,89,97,112,119,116,115,127,135,127,111,130,134,132,134,117,98,88,84,82,84,88,97,110,121,134,141,141,137,126,118,121,127,127,122,125,130,129,126,126,128,130,133,135,137,138,140,142,142,141,139,138,139,139,140,140,137,134,130,131,131,132,132,134,130,127,127,127,125,128,135,140,136,132,135,136,125,108,98,97,103,108,114,122
136,142,143,143,143,144,144,144,143,128,113,114,122,114,106,112,124,121,108,95,86,87,107,134,119,113,129,143,143,140,141,143,143,149,149,148,144,144,146,141,134,134,138,142,141,132,122,119,125,119,97,96,119,135,135,128,131,134,123,110,113,128,139,141,142,138,126,109,118,131,131,137,144,143,136,129,127,129,139,149,147,142,137,130,122,107,68,39,31,30,36,47,74,84,75,77,88,94,91,80,72,72,77,96,125,143,147,137,124,127,133,140,144,149,150,147,141,133,80,59,88,134,135,121,121,133,132,127,124,123,125,128,135,141,142,142,136,119,108,114,129,139,135,129,128,125,120,115,110,107,109,114,126,139,141,142,143,144,149,163,152,142,136,132,129,125,112,101,105,111,114,114,110,109,112,120,118,115,119,128,136,138,131,136,130,128,134,133,118,105,98,96,97,97,101,109,121,135,141,139,130,116,109,117,128,128,125,127,132,134,134,134,137,137,135,134,135,137,140,142,143,140,138,138,140,141,142,142,141,138,132,128,128,129,129,130,130,130,132,134,129,126,133,137,121,108,122,135,140,132,121,112,109,111,118,128
138,139,140,142,143,144,144,144,143,130,114,112,124,126,116,113,123,131,132,128,121,122,133,127,108,117,138,145,143,139,140,141,141,143,147,151,153,153,147,141,131,128,130,136,140,138,133,129,130,123,107,109,123,129,128,128,132,136,127,112,112,127,140,143,143,139,130,126,131,137,141,143,144,143,135,128,123,126,133,141,145,140,138,135,130,120,98,68,52,50,57,72,86,79,74,82,95,96,92,85,82,87,95,120,136,141,140,131,131,136,139,139,142,144,144,137,129,136,132,120,128,135,128,115,113,124,127,126,126,126,128,130,137,142,142,143,137,124,113,118,133,138,131,125,123,126,125,122,117,111,107,105,112,131,140,143,142,139,145,156,153,143,141,137,131,123,111,106,103,98,97,99,102,103,104,111,114,112,122,130,132,134,138,134,123,122,126,134,133,126,121,122,123,125,125,126,130,139,141,136,124,109,106,114,126,127,124,125,130,134,136,137,138,135,130,128,129,135,138,141,139,137,138,140,142,141,141,141,139,136,131,128,125,123,125,126,128,132,136,136,132,128,131,132,115,104,121,133,138,129,118,109,106,110,120,131
133,135,137,141,143,144,144,144,144,136,121,111,117,128,129,123,127,135,139,144,144,144,139,120,109,125,141,144,143,141,143,143,144,143,147,153,155,154,147,138,128,120,119,124,131,136,138,137,135,128,121,124,126,123,127,130,133,135,129,117,113,123,135,141,143,137,132,134,137,136,139,143,144,143,137,129,122,123,127,130,135,133,130,133,135,129,120,108,98,94,98,102,94,85,86,97,102,99,96,95,103,107,121,138,144,137,126,122,128,129,129,128,128,129,127,125,121,124,132,132,126,126,124,111,101,103,104,110,117,124,129,131,134,134,136,142,138,128,118,121,129,130,125,110,96,103,122,128,121,111,101,93,108,125,136,140,139,131,142,145,152,147,143,138,129,121,115,114,110,98,92,94,100,103,99,101,113,120,128,132,118,121,132,135,127,118,121,131,139,141,138,136,135,134,135,137,140,142,140,131,119,111,111,117,123,125,124,124,128,132,132,133,133,128,124,122,126,132,138,139,135,133,134,138,141,142,141,138,132,127,124,125,122,121,122,125,128,128,126,128,131,129,129,129,122,116,127,131,128,120,110,104,103,108,119,129
128,132,138,142,144,143,144,144,144,143,132,116,111,121,131,129,128,131,135,138,138,139,135,124,120,132,143,144,145,146,146,143,139,138,143,147,150,153,151,142,131,120,111,109,114,124,131,135,135,131,129,128,126,122,125,132,134,134,131,120,115,123,130,137,138,131,125,128,122,114,123,138,144,143,140,135,128,128,128,125,125,127,127,131,140,138,131,126,123,121,117,110,104,102,106,111,111,110,112,118,124,130,142,147,137,121,111,115,124,124,123,122,120,119,117,119,121,126,128,130,127,128,123,111,101,97,94,96,105,116,126,130,127,107,114,132,133,124,117,112,117,122,116,90,64,84,118,131,125,112,99,87,100,118,129,133,134,134,137,138,147,152,147,138,128,120,118,120,121,111,100,98,104,111,115,111,116,128,132,134,119,121,133,136,130,121,122,130,140,142,139,137,136,134,135,138,142,142,137,128,119,118,119,120,121,125,125,126,127,130,131,132,131,128,125,126,130,137,141,139,135,131,131,133,136,139,139,133,123,115,114,118,122,124,126,128,129,120,106,110,126,132,131,129,124,120,124,125,118,114,113,110,109,112,120,126
129,135,141,143,144,144,144,144,144,144,141,124,105,112,123,128,129,131,134,136,136,135,135,133,129,136,141,142,143,144,147,143,138,138,142,143,142,143,147,145,140,131,116,105,101,108,119,128,135,137,131,128,126,126,129,133,135,137,133,125,121,123,128,135,133,115,103,111,106,95,107,131,143,143,139,134,130,131,127,120,118,122,132,141,142,141,139,135,132,126,118,115,116,119,122,123,128,130,133,137,142,149,153,148,128,106,99,105,117,123,118,116,109,104,106,109,114,118,123,122,124,125,123,121,114,107,103,102,109,114,124,132,129,107,107,123,126,119,115,107,111,116,113,93,72,91,122,135,131,117,106,96,100,114,125,124,118,121,128,132,141,147,145,138,125,120,119,124,125,119,110,103,104,109,115,122,126,130,133,132,132,136,143,143,136,127,123,128,139,142,142,141,137,133,132,136,141,141,138,131,126,125,125,121,119,126,128,127,124,127,131,133,131,130,130,132,136,139,141,141,138,135,132,131,131,133,131,126,115,107,107,115,124,129,133,135,133,120,105,108,130,137,136,130,121,115,118,117,112,114,120,120,119,121,125,127
135,139,142,141,144,144,144,144,144,143,134,128,100,108,119,123,126,130,135,140,140,139,136,137,134,137,136,133,135,142,143,140,136,137,139,137,136,138,143,146,145,143,134,118,104,103,109,119,132,135,129,125,127,133,133,128,128,138,136,129,126,127,130,135,128,102,93,107,110,104,112,131,142,140,137,135,133,129,120,113,114,128,141,146,144,138,134,135,136,129,122,123,128,131,133,130,134,140,145,149,157,165,165,153,127,104,95,101,114,124,122,112,95,87,90,93,93,98,107,110,109,111,111,116,118,124,125,126,126,124,126,135,134,123,119,121,119,121,118,112,113,115,117,112,104,117,133,140,137,127,116,107,105,112,117,110,91,100,118,125,133,140,143,141,134,126,121,126,124,124,121,114,111,105,106,110,118,127,131,124,123,135,143,143,139,130,126,130,139,143,143,142,139,132,130,135,140,141,141,137,133,130,128,128,124,127,130,127,121,121,126,130,130,129,129,128,126,126,128,135,140,140,137,135,131,127,122,115,108,106,110,120,130,136,139,140,138,129,125,128,135,141,139,131,118,112,115,115,111,114,123,125,126,129,132,133
139,140,140,132,141,143,144,144,144,142,131,127,111,114,122,124,123,128,133,138,139,137,136,138,138,139,137,130,128,131,137,137,136,138,135,131,131,135,141,143,142,143,142,132,119,111,111,116,122,125,123,122,129,138,132,121,118,135,135,129,128,128,132,138,128,101,91,102,114,116,119,133,139,137,137,135,130,120,110,107,119,136,143,145,143,143,141,140,134,125,119,124,133,136,142,138,136,138,141,143,152,160,159,146,126,108,104,109,115,124,126,116,102,94,92,89,82,81,88,93,92,94,92,99,107,122,131,131,127,123,125,135,138,131,127,127,121,121,122,120,119,121,124,124,124,134,140,143,139,132,116,112,111,112,110,102,88,96,111,119,127,134,141,143,138,133,128,133,130,128,125,122,128,119,110,104,108,126,131,121,119,130,141,142,140,132,123,127,138,142,140,139,138,133,132,137,141,142,142,140,139,135,132,133,129,131,131,128,122,121,125,129,129,127,118,104,95,94,101,112,128,139,141,140,133,123,115,111,109,113,121,129,137,140,141,142,141,138,135,137,141,143,140,132,122,116,115,114,114,119,127,129,130,134,138,139
137,138,141,138,140,142,144,144,144,143,133,123,108,109,123,126,123,126,130,129,128,128,132,135,138,142,142,136,132,131,133,132,130,135,138,129,127,131,135,135,135,133,129,128,124,120,117,113,108,107,110,118,130,140,135,124,120,134,133,126,124,127,134,141,133,116,109,117,129,132,134,136,134,133,134,130,120,109,104,110,126,139,142,141,140,138,138,136,129,124,125,127,135,135,139,141,134,131,130,132,134,136,133,122,110,102,101,106,111,117,120,114,111,110,107,98,90,87,91,92,91,89,87,87,94,109,117,108,113,115,123,134,140,137,135,134,130,126,125,124,126,130,133,130,132,136,129,137,132,128,116,117,119,114,109,103,97,101,108,119,129,137,140,143,142,138,131,131,125,121,123,128,135,127,120,111,113,128,137,132,118,113,117,123,130,130,122,123,134,139,136,137,136,133,134,139,143,143,143,142,143,141,144,141,139,137,136,134,130,130,134,135,131,121,95,74,64,65,73,85,103,127,140,141,134,125,120,121,122,126,131,138,141,142,143,143,142,141,140,139,142,142,141,139,131,125,121,119,122,128,132,133,133,136,139,139
136,137,141,143,143,136,139,143,144,143,128,113,98,101,119,126,125,128,130,124,116,119,129,136,138,142,144,143,141,139,137,135,130,130,135,134,129,128,129,128,128,124,121,120,119,122,124,117,106,99,101,116,131,140,139,131,130,135,132,124,120,126,135,141,135,128,126,131,138,139,138,130,121,117,117,115,108,104,108,119,128,130,131,133,135,134,129,120,111,114,127,136,135,132,130,136,135,131,131,132,132,127,117,109,107,110,111,116,123,128,128,122,118,117,115,112,107,104,113,109,101,97,94,89,90,97,95,90,99,112,122,132,138,140,141,141,139,133,126,121,125,132,133,127,132,133,121,128,134,127,123,125,124,118,115,113,108,110,114,128,136,138,143,143,143,140,139,132,117,110,115,122,128,127,126,118,120,131,142,126,87,65,60,72,93,114,117,115,124,132,135,133,129,128,134,141,144,144,143,144,143,143,147,142,142,142,142,140,140,142,146,141,133,113,77,53,47,51,58,67,80,108,133,142,136,129,130,134,135,137,140,142,143,143,143,143,143,142,142,141,143,143,143,142,140,132,128,128,132,136,136,133,133,137,141,139
135,137,142,143,139,126,131,135,139,131,121,105,90,95,112,122,126,129,129,122,112,112,126,137,139,141,147,148,146,144,143,141,132,126,127,128,128,129,131,128,123,118,115,113,113,120,128,128,115,105,106,119,131,136,135,128,128,135,133,126,124,129,137,138,132,128,125,123,125,134,135,125,111,104,104,105,107,112,122,127,119,109,104,113,127,130,119,101,92,103,123,138,138,125,123,124,130,127,122,126,128,125,107,96,97,99,104,112,117,123,125,123,122,122,124,124,127,132,135,131,128,123,120,114,108,99,89,87,100,110,118,130,135,139,143,144,143,139,130,119,115,125,128,125,134,132,126,131,134,130,127,123,118,117,123,124,122,120,124,130,137,139,141,143,144,142,141,134,123,116,115,116,122,126,124,119,122,130,134,97,45,23,20,27,47,86,112,112,117,128,134,130,123,118,130,143,144,144,144,144,144,151,147,143,143,142,142,143,144,145,149,140,137,113,73,47,41,45,53,59,68,92,125,140,138,133,132,135,138,139,141,142,143,143,142,141,142,142,141,142,142,142,143,142,140,136,133,134,138,137,134,131,132,138,143,139
131,137,143,143,139,139,136,128,124,113,111,98,89,95,107,115,124,128,127,122,111,108,121,136,139,139,143,149,147,147,147,145,135,125,120,116,116,120,124,124,123,117,112,108,107,115,128,132,127,117,116,124,130,132,129,124,129,139,138,131,128,131,134,128,121,114,108,99,109,126,126,114,102,102,106,108,116,127,130,122,111,98,85,92,114,119,111,92,85,100,121,130,132,127,121,127,121,118,117,120,124,124,110,93,94,101,105,112,121,128,131,130,130,128,129,133,136,141,141,136,135,133,135,134,124,104,94,100,108,108,105,123,133,138,143,143,140,135,128,124,114,118,125,128,131,133,128,128,128,124,120,109,105,109,120,123,122,119,120,124,130,133,139,142,142,128,128,138,133,127,123,120,117,119,120,120,124,132,125,75,24,10,8,11,24,65,110,122,118,127,133,129,122,122,133,141,143,144,144,144,147,155,144,143,138,127,122,131,142,144,146,143,141,124,87,57,45,45,52,58,65,87,117,136,139,134,130,130,130,131,132,136,138,138,137,137,139,142,142,142,141,141,141,139,138,135,132,133,136,137,134,133,135,141,141,134
127,136,143,143,141,141,141,135,121,103,99,97,97,103,109,113,120,126,126,122,112,107,117,129,134,136,142,146,150,152,149,145,135,127,121,117,115,117,120,124,128,125,115,105,101,108,122,131,132,126,122,122,126,129,127,129,140,143,140,131,125,126,124,114,105,102,98,94,105,114,112,103,99,102,107,115,128,134,130,120,118,101,87,91,107,112,117,107,96,110,124,127,128,130,124,123,122,119,123,123,119,123,123,107,96,115,119,121,123,131,136,133,130,124,123,128,131,135,136,129,118,116,126,131,120,108,105,118,123,120,109,113,128,134,141,139,136,126,116,118,122,121,117,108,112,126,124,125,120,116,114,105,98,100,107,112,114,110,111,120,130,133,136,141,143,137,135,140,139,136,132,121,114,116,117,125,128,133,126,79,29,11,8,11,26,66,114,128,121,125,130,130,128,130,135,138,143,143,143,145,154,151,144,142,121,93,91,114,136,144,144,144,143,138,114,84,66,59,61,67,77,95,116,129,137,137,132,127,123,121,122,130,135,137,137,136,140,143,145,145,144,143,142,138,137,133,129,129,132,136,137,136,139,141,133,126
124,138,143,144,143,143,144,142,124,103,96,100,104,109,112,114,119,125,128,126,117,109,111,119,126,132,143,148,149,150,144,133,123,121,123,127,128,123,120,121,128,132,125,112,105,107,114,122,127,125,121,117,118,125,130,138,143,143,135,125,117,119,117,107,100,102,106,108,111,111,106,105,108,114,119,126,133,135,129,122,124,116,102,102,115,128,127,121,122,128,127,123,124,129,130,126,119,121,128,130,123,119,126,123,101,117,119,130,134,134,132,133,133,129,124,120,124,127,121,92,56,57,79,122,124,113,112,119,122,115,109,117,124,134,137,142,139,125,114,118,124,124,117,102,105,118,120,122,119,115,113,104,98,97,97,106,113,110,108,120,134,132,134,139,143,143,143,141,143,142,136,121,114,114,116,129,135,136,128,102,65,34,29,34,56,95,125,124,118,123,143,159,142,136,138,142,144,141,140,149,157,146,144,139,112,77,74,111,136,144,144,144,144,143,137,121,103,93,91,95,103,114,123,128,134,139,133,122,112,107,111,116,126,129,132,132,134,137,144,143,143,143,141,139,138,133,130,129,134,139,140,140,141,135,123,117
128,141,144,144,144,144,144,143,131,112,103,105,109,110,111,113,117,122,128,130,124,113,107,110,116,126,134,142,144,146,139,118,99,97,109,127,139,132,122,118,124,135,134,126,119,116,115,114,115,117,115,111,110,119,133,141,142,138,129,120,117,121,122,112,107,115,126,128,127,121,114,114,119,125,126,128,131,132,128,124,127,127,123,125,130,137,131,126,132,138,130,118,114,126,134,136,128,122,122,129,133,128,120,129,120,116,109,114,124,123,122,120,117,111,106,111,128,138,126,78,37,39,56,105,121,121,120,124,130,132,130,132,122,122,136,139,143,132,121,122,128,126,117,111,110,116,118,121,121,120,112,98,98,97,96,109,122,117,109,120,136,135,132,134,139,141,142,143,144,143,135,117,110,112,121,129,134,128,124,114,106,96,90,95,110,125,123,115,118,126,132,154,148,141,141,143,144,141,138,154,153,144,144,141,126,107,107,129,141,144,144,143,144,144,143,141,134,128,128,128,131,134,133,130,132,135,129,117,104,99,102,110,118,129,133,138,141,143,148,148,148,148,144,143,140,133,130,132,134,139,141,142,141,132,120,118
136,143,144,144,143,144,144,143,136,123,113,112,117,118,113,111,113,118,124,128,126,117,110,107,108,114,120,126,130,136,130,106,85,82,96,119,141,138,127,119,124,138,143,134,130,128,123,114,110,109,109,106,106,114,128,136,135,131,126,123,125,130,127,115,114,127,138,141,140,132,127,126,128,131,132,129,129,128,127,126,128,131,132,133,132,133,130,128,130,135,132,121,111,117,129,140,136,129,126,129,134,130,130,123,119,121,111,99,98,96,91,94,97,92,88,95,114,122,117,94,57,51,68,100,116,126,114,100,104,106,104,104,113,128,142,131,139,137,126,122,126,124,114,108,109,115,122,122,120,119,115,105,104,99,97,113,129,129,122,128,138,134,124,124,128,130,133,138,143,140,128,112,108,114,121,122,131,127,116,107,107,113,118,123,125,124,119,119,127,136,137,139,143,143,143,144,144,141,141,157,147,144,144,143,142,142,140,141,143,144,144,144,144,144,144,144,143,143,143,143,143,143,140,135,133,131,127,117,109,104,102,101,106,116,124,132,133,140,143,143,143,143,143,142,138,134,131,128,125,127,135,139,140,133,127,128
137,139,143,143,135,143,144,143,138,129,119,116,122,127,119,112,110,111,116,121,122,117,110,106,102,102,105,108,115,125,125,109,90,85,95,118,137,129,118,112,120,135,146,141,133,133,132,123,113,107,105,102,105,116,128,129,126,124,126,130,133,132,124,116,120,134,143,144,143,140,135,135,139,139,138,134,131,130,129,128,128,132,137,140,137,131,127,127,127,130,131,126,114,107,122,134,138,132,129,130,129,124,128,134,128,121,115,103,99,96,84,80,86,87,88,90,95,97,90,87,82,84,89,93,98,110,126,120,113,108,101,99,118,133,140,121,129,135,128,123,124,124,118,116,120,128,130,126,119,118,119,117,112,103,101,114,130,137,137,135,129,123,112,109,109,112,117,127,136,136,122,104,106,116,123,124,127,122,109,105,104,109,112,114,117,119,120,126,136,143,143,144,144,144,144,144,144,140,151,153,144,144,144,144,144,143,143,144,144,144,144,144,144,144,144,143,143,143,143,144,144,143,142,139,136,133,128,123,120,119,115,107,104,107,117,129,134,139,142,140,138,135,135,136,136,135,133,124,107,105,123,133,136,134,133,136
141,141,141,143,130,138,144,143,140,133,125,117,117,119,115,110,108,109,115,120,119,114,108,105,98,96,102,105,112,121,122,112,97,90,98,119,132,120,106,105,116,131,140,141,139,137,138,131,120,111,106,102,106,118,123,116,112,120,128,133,133,130,122,119,127,140,144,144,143,141,138,138,141,143,141,137,134,132,130,129,128,132,138,141,142,138,132,127,120,121,126,129,119,104,115,128,135,135,131,130,129,127,122,122,126,131,132,126,119,110,106,109,108,95,89,86,84,87,75,67,68,75,81,77,72,72,111,135,131,126,114,117,128,139,142,134,130,131,129,125,121,124,125,127,128,136,139,131,125,122,120,119,115,109,108,113,122,133,137,126,109,103,97,98,96,97,102,114,124,126,113,99,104,116,121,123,123,115,105,105,107,101,97,96,109,116,122,128,139,144,144,144,144,144,144,144,143,145,153,146,144,144,144,144,144,144,144,144,144,144,144,144,144,144,143,141,134,135,141,143,144,143,139,134,134,136,133,129,128,129,128,119,112,111,118,128,135,131,128,126,125,125,128,132,135,138,139,126,103,106,121,132,135,133,133,136
143,142,140,144,135,136,144,143,142,139,133,124,115,110,109,110,108,108,119,125,121,114,104,106,98,93,100,107,114,120,119,110,100,96,106,123,128,113,104,108,120,132,134,137,143,143,142,135,125,115,110,106,109,118,115,101,99,115,129,133,131,128,122,124,132,140,143,143,143,139,135,134,143,146,140,135,134,129,123,127,131,135,139,140,140,139,135,128,123,125,129,132,126,107,104,120,134,136,136,131,128,123,114,106,104,110,118,124,128,124,113,107,107,100,92,84,82,86,81,81,82,82,94,94,93,95,120,138,134,132,127,131,135,143,144,137,130,128,128,120,114,115,124,129,123,130,141,137,133,126,114,110,114,112,111,109,111,117,116,103,89,85,89,95,97,95,99,109,116,114,108,107,115,120,122,121,118,110,104,106,110,99,81,78,99,117,125,131,140,150,147,144,144,144,144,144,144,149,151,144,144,144,144,144,144,144,144,144,144,144,144,144,144,144,143,142,117,128,142,143,143,142,136,131,128,131,131,130,129,131,131,125,120,120,123,128,127,116,104,100,103,109,121,132,140,142,143,136,127,128,134,140,138,135,140,143
144,143,139,141,141,137,143,141,133,135,138,133,125,119,118,122,121,120,126,128,125,118,112,111,97,87,93,100,108,116,120,117,112,112,122,131,124,110,106,115,125,131,130,131,142,146,144,140,128,120,115,110,111,118,114,99,99,116,130,132,130,129,129,131,135,139,140,139,139,136,131,138,146,147,142,139,136,131,122,119,125,135,139,139,138,136,131,127,124,128,131,132,125,113,101,108,130,134,136,133,129,127,118,102,92,91,94,98,106,109,101,94,95,95,93,95,99,104,108,114,122,123,123,121,125,130,138,140,135,136,132,135,136,143,139,128,124,125,121,109,99,105,120,126,125,132,136,130,137,125,99,90,106,109,108,104,100,95,90,82,78,79,86,96,100,100,103,109,110,108,106,116,128,128,127,122,120,116,107,103,106,98,79,75,99,119,128,138,143,148,155,146,144,144,144,143,151,153,146,144,144,144,144,144,144,144,144,144,143,143,144,144,144,144,143,140,128,141,144,143,143,143,133,129,126,125,127,129,130,131,130,126,124,127,127,125,120,107,93,88,92,98,113,127,137,140,140,140,143,143,143,144,142,140,144,144
144,144,142,139,143,138,139,139,137,132,133,134,131,128,128,133,135,134,127,123,130,126,124,118,104,94,95,101,108,117,125,128,128,132,138,135,120,104,104,112,121,123,122,126,137,148,145,140,131,122,119,117,119,125,124,114,115,127,136,137,138,137,137,137,137,137,138,138,137,136,138,143,145,144,143,143,142,137,131,127,124,128,129,129,133,138,137,135,132,131,130,130,123,116,113,114,125,130,132,127,124,128,128,113,95,79,84,89,100,110,110,105,105,104,105,112,122,128,132,137,140,138,122,105,107,125,135,135,135,128,133,139,140,138,135,128,126,127,122,107,94,106,118,121,127,135,135,130,134,124,105,96,108,111,110,108,102,93,87,87,89,90,93,100,104,105,108,109,107,107,117,132,139,131,126,126,130,125,109,101,105,111,105,104,122,128,139,143,144,144,150,155,145,144,143,141,153,155,146,144,144,144,144,144,144,144,144,144,143,143,143,143,144,144,143,142,141,143,143,142,144,142,139,136,132,129,129,132,135,137,134,129,128,129,128,126,123,115,106,104,109,118,129,138,142,143,143,143,143,143,144,144,142,141,144,144
144,143,140,143,144,143,143,144,142,137,134,133,129,126,122,123,128,133,128,125,138,138,126,124,119,113,114,117,120,125,122,114,116,132,143,136,117,103,102,107,112,114,113,120,133,143,146,142,131,122,123,127,129,135,137,135,132,127,123,129,138,141,141,137,133,133,140,141,142,141,143,145,144,144,144,144,143,140,137,136,135,130,128,127,129,134,136,134,132,131,131,131,124,119,118,123,127,130,130,126,122,125,129,124,107,85,94,104,116,127,130,125,119,112,111,119,128,133,137,139,135,127,94,74,74,92,119,138,140,135,138,140,135,131,131,132,132,135,132,121,116,121,120,118,123,132,136,132,130,129,124,118,120,125,127,126,121,113,109,110,112,113,113,115,116,117,117,114,111,110,127,141,140,136,133,136,136,128,109,99,106,127,135,137,141,141,142,142,143,144,144,152,152,143,139,147,154,148,150,149,147,145,144,144,144,144,144,144,143,143,143,140,143,144,144,144,144,144,143,140,141,139,143,142,141,138,135,138,141,142,140,138,135,135,136,133,132,129,128,130,135,139,143,144,144,144,144,143,138,131,142,144,141,142,144,144
144,142,140,143,144,144,144,144,144,143,138,141,139,128,120,116,117,121,127,131,138,141,137,136,135,132,131,131,132,130,112,92,94,118,140,137,120,109,109,110,112,113,110,114,127,135,138,138,130,122,125,134,139,140,143,143,130,109,98,109,127,135,136,131,128,134,143,147,145,143,144,144,143,144,145,145,142,138,137,139,141,137,132,129,130,132,131,130,131,132,134,134,128,126,126,128,129,130,129,126,123,126,128,128,120,112,116,123,130,136,138,129,121,116,115,121,132,137,138,142,138,133,113,91,85,98,124,134,132,141,144,144,142,141,139,141,143,143,143,142,135,117,123,123,122,127,128,127,128,133,135,128,129,136,140,139,136,132,128,125,125,127,129,130,129,127,125,126,124,122,130,136,136,135,134,135,133,123,108,104,119,138,141,140,143,143,140,143,143,147,146,145,154,143,144,154,148,144,144,146,146,144,144,144,144,144,144,143,139,142,143,143,144,144,144,144,144,144,144,144,142,142,144,143,143,142,141,142,143,143,143,139,134,135,139,140,140,140,140,142,143,144,144,143,144,144,144,144,137,128,140,143,139,143,144,144
144,141,139,140,143,144,144,144,144,143,136,142,144,133,127,122,119,117,118,123,129,135,138,140,140,139,138,138,138,135,118,94,95,118,140,136,122,115,115,117,119,120,114,110,117,127,131,131,128,124,126,135,141,143,143,143,129,100,86,97,119,132,136,133,132,135,140,141,141,142,143,143,143,144,142,132,128,134,141,144,151,148,143,139,137,134,129,125,121,124,127,127,125,123,124,125,126,127,126,126,123,122,120,117,111,112,120,129,131,133,134,134,130,125,121,124,132,140,143,143,140,140,134,125,122,123,122,122,129,142,144,144,143,143,144,149,148,147,146,144,140,130,135,131,127,125,126,128,133,140,140,136,135,140,143,143,141,136,130,128,127,128,131,133,134,130,130,137,138,134,129,127,129,132,132,130,128,120,114,119,133,143,138,136,142,143,143,144,144,148,148,145,149,143,149,149,145,144,144,145,146,144,144,144,144,144,143,136,138,139,139,140,144,144,144,144,144,144,144,144,144,144,143,143,143,143,142,143,143,143,141,133,126,126,133,144,143,142,143,144,144,144,144,144,144,144,144,144,143,142,144,143,142,144,144,144
144,143,143,144,144,144,144,142,144,136,125,139,144,145,139,133,129,124,119,119,124,130,134,135,135,137,138,140,144,147,138,123,120,131,142,133,118,113,115,119,125,128,122,115,114,119,126,129,130,125,122,125,133,140,142,141,131,109,98,107,127,137,141,139,138,138,138,138,138,138,139,140,141,142,127,100,95,120,138,144,146,150,153,151,150,145,138,131,127,123,122,122,124,125,126,127,127,128,128,128,128,128,128,122,113,116,128,138,140,137,135,135,133,128,128,130,133,137,140,143,142,140,139,136,133,128,128,137,143,144,145,147,148,146,143,144,145,151,148,144,144,144,143,139,134,133,133,136,144,144,143,142,141,143,143,144,143,138,133,130,130,132,134,135,135,136,138,140,143,140,132,128,128,129,128,126,126,125,127,133,142,144,140,134,141,142,141,141,143,149,147,146,145,146,145,147,144,144,147,150,148,144,144,144,144,144,143,136,138,137,136,139,143,144,144,144,144,144,144,144,144,144,144,144,143,143,143,143,143,142,141,133,113,106,113,141,143,142,144,144,144,144,143,144,143,143,141,140,140,143,144,144,144,144,144,144
144,144,144,143,144,143,143,144,144,143,139,137,143,144,146,139,131,129,125,122,122,128,134,136,136,135,135,136,138,140,137,135,140,139,137,128,115,110,114,121,128,134,133,127,120,117,120,127,129,125,117,112,117,127,135,135,132,122,118,126,136,141,143,143,142,142,140,140,138,138,138,137,138,135,111,76,73,103,133,143,143,143,144,146,145,142,138,135,141,144,144,142,141,140,142,143,144,144,144,143,143,143,143,130,116,117,130,138,140,140,139,135,131,129,133,138,142,143,143,143,143,143,143,144,143,143,143,144,147,152,155,155,149,144,142,142,148,151,146,144,144,144,144,143,142,142,141,143,144,142,142,143,144,144,143,143,143,141,136,134,135,137,139,140,140,141,140,132,139,143,139,134,133,129,123,118,121,128,137,141,144,143,139,136,142,140,141,143,144,146,151,145,148,146,147,145,145,143,143,143,144,144,144,144,144,144,144,140,133,126,129,136,141,143,144,144,144,144,144,144,144,144,144,144,143,143,143,144,143,143,141,142,120,112,124,143,143,144,143,143,143,141,140,143,144,129,109,102,116,134,143,144,144,144,144,144
144,144,144,144,144,144,144,144,144,144,143,137,141,143,140,143,138,123,125,124,124,128,135,141,141,140,137,136,135,135,133,137,140,137,131,125,118,115,116,120,128,138,138,136,129,119,117,124,130,128,118,108,106,115,127,131,132,130,131,136,141,143,143,143,143,143,143,142,140,142,141,139,138,133,116,86,81,104,129,137,137,137,138,137,135,132,127,125,126,129,129,128,128,127,127,125,124,121,121,122,124,128,131,119,103,108,129,143,143,142,136,129,128,129,134,140,143,143,142,142,138,142,143,142,143,144,146,152,156,154,151,148,145,144,144,143,144,143,143,144,144,144,144,144,143,138,139,137,140,142,142,141,143,143,143,142,142,141,137,134,135,142,143,143,144,143,143,139,141,143,141,137,136,130,126,122,122,128,139,143,144,144,141,140,143,142,143,144,144,143,141,144,149,147,149,145,150,143,141,142,144,144,144,144,144,144,143,140,129,122,120,125,134,141,143,144,144,144,144,144,144,144,144,144,144,143,144,144,143,143,142,142,136,135,135,140,143,144,143,143,140,141,143,146,137,101,70,66,88,120,132,139,143,144,144,144
144,144,144,144,143,142,143,143,143,143,143,136,142,146,143,136,137,130,122,125,124,125,130,137,143,143,142,139,138,138,132,133,128,132,126,124,125,126,125,122,124,134,136,141,137,127,122,128,136,137,128,119,112,114,125,133,135,136,139,142,143,143,141,143,143,142,143,142,139,141,143,142,140,140,131,116,110,121,130,128,126,126,127,128,127,124,119,117,118,120,121,122,121,121,119,116,111,106,106,109,114,121,129,132,128,128,136,143,142,137,123,110,111,121,128,137,138,135,132,134,133,135,133,131,139,145,150,153,150,145,144,144,144,144,144,143,143,142,141,143,144,144,143,143,143,138,144,143,144,144,143,138,136,139,143,141,139,137,130,127,128,140,143,144,144,142,137,139,139,138,137,137,140,142,136,129,123,128,137,143,144,144,144,142,143,143,141,143,142,138,143,149,145,146,149,144,144,144,138,140,143,144,144,144,144,144,143,137,125,113,108,114,124,130,141,144,144,144,144,144,144,144,144,144,144,144,144,144,144,144,144,143,143,141,143,138,141,144,143,140,141,142,138,145,137,95,61,59,85,116,133,137,140,142,144,144
144,144,144,144,142,140,140,140,139,140,143,133,144,151,144,141,134,141,128,128,126,125,126,129,138,143,143,141,142,143,132,126,121,124,120,120,124,128,130,128,125,131,136,140,140,131,127,131,139,143,142,134,125,122,128,136,141,143,143,143,143,140,139,138,132,126,126,130,133,132,132,136,142,143,143,138,135,134,130,122,115,112,114,120,125,126,124,122,122,122,123,125,127,126,123,116,108,103,101,104,112,121,131,141,143,143,143,143,143,140,129,119,119,128,135,141,141,139,134,130,126,128,132,138,143,144,144,144,144,144,144,144,144,144,144,144,144,143,141,141,142,143,137,135,138,138,143,144,144,144,142,128,119,131,140,139,136,126,112,105,113,133,142,144,144,142,138,137,138,136,138,141,143,144,142,132,124,125,132,142,143,144,142,144,144,142,143,142,135,139,149,146,144,145,151,144,140,138,139,140,143,144,144,144,144,144,143,137,121,110,106,110,120,131,143,144,144,144,144,144,143,144,144,144,144,144,144,144,144,144,144,144,143,142,140,140,143,144,143,141,143,137,135,144,146,115,93,90,106,130,141,143,143,143,144,144
143,144,144,144,144,144,144,143,143,143,143,133,143,152,144,142,136,143,146,136,133,128,125,124,130,137,139,137,139,141,129,127,117,112,112,113,115,120,126,129,128,132,137,137,137,131,129,131,136,143,144,142,132,126,128,136,141,143,143,144,142,137,133,121,95,77,74,84,103,117,118,120,131,141,144,144,143,139,128,117,109,102,103,115,128,133,133,134,134,132,133,135,136,135,129,120,110,103,101,104,111,120,130,140,143,143,144,144,144,144,143,143,142,143,144,144,145,144,145,143,141,138,140,143,144,144,144,144,144,144,144,144,143,141,143,144,143,143,143,131,128,141,135,124,130,143,144,143,143,143,140,130,124,132,138,137,129,108,87,82,98,127,141,144,144,144,143,143,141,136,134,139,140,139,136,129,121,120,129,142,144,144,143,144,144,144,143,136,136,149,146,144,144,143,144,145,138,135,137,140,141,142,143,144,144,144,144,143,134,127,123,126,134,142,144,144,144,144,144,144,143,144,143,142,144,144,144,144,144,144,144,144,143,138,128,123,135,143,144,143,143,143,137,143,144,140,129,127,132,141,140,143,144,143,143,143
143,144,144,143,143,143,144,144,144,144,143,131,147,151,144,143,137,142,155,151,142,137,128,122,123,128,130,130,131,130,122,114,119,109,106,106,107,113,121,128,131,137,137,135,136,131,130,131,134,140,143,141,134,129,130,134,138,142,144,143,140,134,126,96,61,42,37,43,63,92,102,107,121,135,141,143,142,138,129,119,107,97,99,116,132,137,137,138,137,135,135,136,136,134,128,119,110,106,104,105,105,105,113,128,139,143,144,144,144,144,144,144,144,144,152,153,145,135,128,129,138,137,140,142,143,144,144,144,144,144,144,144,143,137,139,140,137,142,144,137,130,134,135,139,143,144,144,144,144,143,141,135,133,138,139,136,122,96,75,76,99,128,142,144,144,144,144,144,144,143,140,136,133,129,128,121,116,122,137,143,144,144,144,144,144,142,133,135,150,146,144,144,143,141,138,137,142,139,140,138,135,138,143,144,144,144,144,144,143,143,141,142,143,144,144,144,144,144,144,144,143,142,143,144,144,144,144,144,144,144,144,144,143,137,125,119,130,142,144,143,144,143,139,142,143,143,142,142,149,142,128,132,141,137,135,139
144,144,144,144,144,143,144,143,143,144,139,136,153,149,144,143,142,141,144,151,155,150,137,126,121,120,120,119,117,113,104,99,106,114,101,101,106,114,123,131,135,137,137,136,138,135,135,134,133,136,141,137,135,134,135,138,139,142,143,144,141,135,123,85,47,26,20,27,46,74,89,99,116,130,133,139,142,140,133,123,109,100,106,125,139,140,137,135,134,133,132,132,132,132,128,122,117,115,114,112,104,92,94,112,133,142,144,144,144,144,144,146,145,147,154,129,103,85,76,76,84,102,128,140,143,144,144,144,144,144,144,144,144,136,131,138,142,139,138,138,142,143,143,144,144,144,144,144,145,147,143,141,140,143,142,138,124,100,86,95,117,134,142,143,144,144,144,144,144,144,144,140,135,130,117,113,125,135,143,144,144,144,144,144,143,135,136,151,147,144,143,142,139,136,135,136,140,147,145,135,130,135,143,144,144,144,144,144,144,144,144,144,144,144,144,144,144,144,144,144,144,144,144,144,144,144,144,143,144,144,144,144,143,141,132,129,134,142,144,143,143,143,143,141,142,143,143,145,148,134,130,133,135,138,143,144
144,144,144,144,143,143,144,144,144,143,143,154,149,144,144,143,144,144,144,144,149,155,147,134,128,123,118,114,108,101,96,93,96,100,96,102,110,119,130,137,137,136,137,138,143,141,141,138,134,133,138,139,138,140,142,143,142,143,144,144,143,138,126,92,48,27,23,31,51,77,92,101,115,128,128,136,142,140,135,127,111,111,123,137,143,142,138,136,135,134,135,136,136,136,133,129,127,127,125,122,117,108,106,120,136,143,144,144,144,144,144,147,144,143,134,112,85,61,53,53,57,74,104,131,143,145,144,144,144,144,143,143,142,131,138,146,144,143,143,144,144,144,144,144,144,144,144,144,144,145,146,143,144,143,143,141,131,117,113,117,125,131,139,143,143,144,144,144,144,144,143,140,138,125,111,125,139,143,144,144,144,144,144,143,136,140,150,148,145,144,142,139,136,135,138,141,143,143,138,132,134,142,144,144,144,144,144,144,144,144,144,144,144,144,144,144,144,144,144,144,144,144,144,144,144,144,144,144,144,144,144,144,144,144,142,140,141,143,144,144,144,144,143,144,144,144,141,145,148,140,142,139,138,140,144,144
144,144,144,144,144,144,144,144,144,146,151,146,144,144,144,144,144,144,144,143,139,142,150,141,137,134,128,124,118,109,101,98,101,97,99,107,119,132,140,139,136,135,140,139,144,144,143,139,135,134,138,143,143,141,142,143,144,144,144,144,144,142,134,113,77,52,46,57,79,97,105,112,121,128,132,138,138,135,135,127,115,125,137,143,144,143,140,137,134,134,134,136,138,139,137,135,132,129,128,128,128,128,131,137,142,143,144,144,144,144,144,147,145,144,140,120,93,68,57,53,56,73,106,131,143,148,146,143,142,143,136,140,142,140,149,144,144,144,144,144,144,144,144,144,144,144,144,144,144,144,146,146,143,140,137,136,136,132,125,127,133,138,142,136,139,144,144,144,144,144,142,137,133,120,119,133,142,144,144,144,144,144,142,136,143,151,146,144,144,144,142,136,134,138,142,144,143,138,130,128,133,142,146,144,144,144,144,144,144,144,144,144,144,144,144,144,144,144,144,144,144,144,144,144,144,144,144,144,144,144,144,144,144,145,148,144,144,144,144,144,144,144,143,144,144,143,142,152,143,142,144,140,142,142,144,144
143,143,143,144,144,144,144,144,147,148,144,144,144,144,144,144,144,144,143,141,133,124,133,138,140,142,140,136,131,128,120,111,106,101,102,110,123,133,137,134,132,134,140,135,141,141,138,135,136,139,143,141,138,136,135,138,143,144,144,144,144,144,142,133,118,103,99,109,121,122,122,125,126,128,136,137,132,130,134,132,126,134,143,143,144,144,142,138,133,129,124,119,122,127,130,133,131,128,128,132,139,141,143,143,144,144,144,144,144,144,144,145,146,146,146,140,122,101,87,80,85,102,126,141,147,148,144,141,129,130,131,142,144,144,144,144,144,144,144,144,144,144,144,144,144,144,144,144,144,144,144,146,143,137,130,132,142,136,128,138,140,143,137,134,139,146,145,143,141,138,131,128,125,123,128,138,143,144,144,144,144,144,143,144,149,145,144,144,144,143,136,132,135,141,143,142,138,131,128,130,138,143,150,147,143,143,143,143,144,144,144,144,144,144,144,144,144,144,144,143,141,136,135,139,143,144,144,144,143,144,144,144,144,149,147,144,144,144,144,144,144,144,144,144,144,143,152,144,140,144,144,143,143,143,143,143
131,137,143,144,144,144,143,148,146,143,144,144,144,144,143,144,144,144,141,137,131,122,124,136,143,144,143,142,140,135,131,124,113,104,101,104,116,127,135,135,132,134,137,128,132,135,135,135,138,142,144,143,136,131,132,135,138,143,144,143,144,144,144,143,139,136,137,140,140,138,136,134,133,134,137,136,130,128,128,132,140,143,144,144,144,144,143,140,135,130,127,122,119,116,114,117,122,125,130,136,143,144,144,143,143,143,144,144,144,144,144,144,144,144,145,146,144,138,131,128,130,137,143,146,146,144,144,141,128,117,129,143,144,144,144,144,144,144,144,144,144,143,143,143,144,144,144,144,144,144,143,143,143,136,135,141,144,136,135,143,143,140,132,136,142,143,138,134,129,125,123,123,126,129,136,143,144,144,143,143,147,145,145,146,146,144,143,144,142,142,135,135,135,139,139,135,131,128,128,138,143,144,145,149,145,141,140,141,143,143,144,144,144,144,144,144,144,144,143,140,125,108,106,118,133,143,142,143,144,144,144,144,146,150,144,144,144,144,144,144,144,144,144,144,143,148,149,140,142,144,144,144,143,140,135,131
117,128,139,143,143,140,142,134,135,140,142,143,144,144,144,144,144,143,135,131,128,119,124,129,138,143,144,141,139,139,138,133,127,119,112,112,119,129,138,140,139,136,139,131,131,131,135,139,142,144,144,143,141,134,129,131,136,140,143,144,144,143,144,144,143,143,142,140,140,140,140,138,137,139,141,138,132,129,126,130,139,143,144,144,144,143,144,143,140,138,136,134,131,130,128,120,116,115,120,119,133,143,142,134,131,133,139,143,145,144,144,144,144,144,144,144,144,144,143,143,143,144,144,144,144,144,144,143,140,137,141,143,144,144,144,146,144,144,144,143,141,138,138,138,141,143,144,144,144,144,143,142,145,138,138,144,145,135,141,143,137,131,129,133,131,127,128,125,125,126,128,129,133,138,143,144,144,143,142,147,149,141,142,146,144,144,144,144,142,143,141,136,133,133,131,129,128,129,139,145,143,143,143,142,141,142,142,141,140,142,144,144,144,143,143,143,142,142,141,132,105,80,74,89,119,138,142,139,142,143,144,145,151,146,143,143,143,143,143,144,144,145,145,147,151,150,143,142,143,144,144,143,141,132,123,117
118,128,138,141,140,136,135,124,120,128,138,143,144,144,144,143,141,140,132,124,121,116,116,121,126,131,137,138,135,135,136,137,137,133,127,122,123,129,139,143,143,143,141,139,140,138,137,141,144,144,144,143,141,139,132,127,132,140,143,143,144,144,144,147,148,140,122,104,101,110,126,136,137,140,142,138,136,135,128,126,133,140,143,143,144,143,144,144,143,143,140,136,133,132,132,128,126,124,123,119,131,143,133,116,105,117,133,141,147,144,144,144,144,144,144,144,144,144,144,144,144,144,144,144,144,143,143,142,141,143,143,144,144,144,144,146,145,144,143,137,128,124,122,124,129,139,143,144,144,143,141,142,144,143,143,147,145,137,141,137,134,133,134,134,134,128,129,130,132,135,137,139,142,143,144,143,141,140,148,149,141,142,143,148,144,144,144,144,144,144,143,137,132,131,131,131,133,137,143,135,131,127,129,131,133,134,135,141,138,140,143,143,143,141,139,139,138,138,138,132,110,85,75,88,116,135,142,143,140,141,147,151,146,143,143,143,143,143,143,144,147,148,149,146,142,138,139,142,143,143,142,142,139,132,124,117
130,138,143,141,138,134,130,124,117,118,124,132,137,140,141,139,141,143,141,134,128,122,118,121,125,128,132,132,130,130,130,133,137,137,131,126,123,127,138,143,142,145,141,143,144,143,143,143,144,144,143,141,137,135,131,125,127,140,145,143,143,145,152,152,142,119,85,57,52,60,84,112,136,142,140,137,134,129,123,127,128,131,136,140,143,143,143,144,143,143,140,135,133,135,136,131,125,117,122,125,136,143,129,112,110,126,130,142,146,143,144,144,144,144,144,144,144,144,144,144,144,144,144,144,143,141,141,143,143,144,144,144,144,144,144,145,147,146,142,129,117,110,110,113,123,135,143,144,144,142,139,143,144,145,144,148,145,143,140,138,142,143,141,140,144,139,139,140,142,143,143,144,144,144,143,141,138,147,149,143,143,145,148,145,144,144,144,144,144,144,143,141,136,136,138,138,138,131,124,115,108,105,110,119,126,129,131,132,137,141,143,143,140,137,136,137,138,138,139,138,130,117,110,116,128,137,141,143,146,145,145,143,143,143,145,144,143,146,149,151,149,145,141,128,113,108,115,126,135,141,142,141,139,135,131,129
143,143,143,140,133,128,124,119,118,123,130,133,133,136,141,143,144,144,144,142,137,133,130,130,131,135,137,134,130,129,128,129,131,133,131,128,125,128,139,142,138,146,141,142,143,143,144,144,144,144,143,138,133,131,131,126,126,136,147,148,144,146,153,150,139,111,72,45,36,41,63,98,132,145,140,133,128,127,126,121,118,118,121,126,129,133,135,138,140,140,137,133,132,136,140,135,127,121,128,130,130,138,134,128,133,142,138,137,136,139,143,144,144,144,144,144,144,144,144,144,144,144,144,144,142,142,143,144,144,144,144,144,144,144,144,144,144,145,142,130,119,114,115,119,128,138,143,144,144,143,143,146,146,147,150,149,144,141,140,145,148,146,143,143,147,148,144,144,144,144,144,144,144,144,140,139,150,153,146,146,146,145,144,144,144,144,144,143,144,144,148,156,143,143,143,139,141,114,96,92,97,103,106,112,121,127,129,130,131,135,141,146,140,137,138,140,142,142,143,143,143,141,139,140,142,143,143,144,143,140,143,144,147,148,144,147,151,150,147,145,143,141,131,107,82,73,82,102,123,137,143,144,143,142,142,142
144,144,143,140,133,125,119,116,118,124,132,138,138,139,142,143,144,144,143,141,136,133,134,136,138,138,136,132,131,133,131,129,128,128,126,125,126,133,139,135,131,142,135,133,134,138,142,143,144,144,143,140,134,132,132,129,130,137,143,147,146,143,145,148,144,122,90,67,58,60,78,110,138,143,136,128,121,118,119,121,120,119,118,118,118,116,115,124,129,130,131,130,131,135,139,137,132,130,131,133,133,133,135,141,144,144,144,144,140,142,144,143,141,140,143,143,144,144,144,143,143,143,143,143,141,143,144,144,144,143,143,144,144,144,144,144,144,144,143,137,131,130,132,134,138,143,144,144,144,144,144,145,146,149,151,146,143,141,146,148,145,144,144,144,144,151,146,144,144,144,144,144,143,141,139,153,154,146,145,144,144,144,144,144,144,144,144,144,144,144,155,158,147,145,144,136,134,106,86,85,93,103,113,121,129,135,137,138,138,139,140,141,139,140,142,143,144,144,144,144,144,146,149,149,145,141,142,143,143,143,145,148,146,144,148,148,145,144,144,144,143,140,130,107,80,72,80,101,122,136,143,144,144,144,144,144
144,144,144,143,137,128,122,119,120,123,126,129,130,134,139,143,143,143,141,137,132,131,133,135,136,134,132,133,136,139,138,132,127,121,116,115,120,130,134,126,124,129,124,120,121,128,138,143,144,144,144,143,138,135,134,134,137,141,143,144,144,143,143,144,146,140,123,105,98,99,109,124,136,135,128,124,118,108,107,110,111,111,110,111,112,114,117,121,122,123,126,129,132,136,137,136,134,134,133,133,137,141,143,144,144,144,145,146,144,144,144,144,140,134,134,136,137,138,137,135,134,134,136,138,138,142,143,143,143,138,138,143,144,144,144,144,144,144,143,143,141,142,143,143,144,144,144,144,146,148,147,146,145,144,144,144,144,147,147,144,144,144,144,144,144,145,150,145,142,141,140,141,147,148,155,153,145,144,144,144,144,144,144,144,144,144,144,144,144,144,146,153,154,153,143,132,123,112,91,91,97,104,112,123,132,138,141,143,143,141,141,143,143,143,145,146,144,144,145,148,149,145,141,139,140,143,143,144,144,147,148,147,146,145,144,144,144,144,144,144,143,141,138,127,111,104,110,123,134,141,143,144,144,144,144,144
144,144,144,144,141,135,132,128,125,122,122,122,123,128,135,138,138,137,134,131,131,132,134,134,132,132,134,137,140,143,142,136,128,120,113,111,115,121,123,118,117,123,116,112,115,124,135,142,143,144,144,144,142,139,138,139,142,143,144,144,144,144,144,144,144,142,135,127,122,121,124,128,130,128,124,121,117,105,103,106,107,107,108,111,116,120,121,120,120,121,123,128,132,135,135,134,134,135,134,134,138,142,144,144,144,144,146,145,144,144,144,144,144,143,141,138,137,137,137,139,141,141,138,136,134,133,133,133,133,134,142,144,144,143,144,144,144,144,144,144,144,144,143,143,144,143,144,144,144,146,146,145,144,144,144,144,144,148,144,144,144,143,145,147,147,148,150,154,151,148,149,151,151,155,154,145,144,144,144,144,144,144,144,144,144,144,144,144,144,144,144,144,146,149,149,142,128,117,106,106,110,117,123,131,137,141,143,144,144,144,144,145,150,149,149,151,143,143,144,141,139,140,142,143,148,153,154,153,151,149,147,145,144,144,144,144,144,144,144,144,144,143,143,143,140,138,139,141,143,143,144,144,144,144,144,144
